ply
format ascii 1.0
element vertex 1309
property float x
property float y
property float z
property uchar red
property uchar green
property uchar blue
end_header
28.1778 30.5253 8.07482 0 255 255
28.9483 31.163 8.26753 0 255 255
29.0359 30.8661 8.237 0 255 255
29.7077 30.7955 8.31714 0 255 255
29.8126 30.7213 8.32096 0 255 255
29.8747 30.5924 8.31141 0 255 255
28.5533 29.0561 7.91836 0 255 255
29.9766 30.3133 8.28661 0 255 255
30.0648 30.2121 8.2847 0 255 255
30.0901 30.0481 8.26562 0 255 255
29.9771 29.7581 8.21029 0 255 255
27.7992 27.4233 7.59018 0 255 255
27.9085 27.3682 7.59781 0 255 255
28.0062 27.2824 7.59972 0 255 255
27.993 27.0987 7.573 0 255 255
28.1487 27.0787 7.59208 0 255 255
27.7299 26.5085 7.45661 0 255 255
28.0052 26.6038 7.50813 0 255 255
28.084 26.5206 7.50813 0 255 255
29.4487 27.2889 7.80388 0 255 255
29.5487 27.2095 7.80769 0 255 255
29.6582 26.7982 7.76953 0 255 255
29.8252 26.7888 7.79243 0 255 255
31.2641 27.9042 8.14542 0 255 255
7.24854 6.42877 1.88323 0 255 255
7.30552 6.43842 1.89277 0 255 255
7.47171 6.50193 1.92521 0 255 255
7.44755 6.43991 1.91376 0 255 255
2.69463 2.30143 0.688802 0 255 255
2.70934 2.29931 0.69071 0 255 255
8.29341 6.47719 2.04542 0 255 255
8.31372 6.45111 2.04542 0 255 255
20.64 13.038 4.74529 0 255 255
20.6726 12.9679 4.74338 0 255 255
5.50495 3.2647 1.24404 0 255 255
5.50672 3.24241 1.24213 0 255 255
4.72902 2.7248 1.06087 0 255 255
4.68643 2.68069 1.04942 0 255 255
4.78014 2.69457 1.06659 0 255 255
4.72005 2.64119 1.05133 0 255 255
4.77077 2.65102 1.06087 0 255 255
4.75329 2.62179 1.05515 0 255 255
4.76196 2.60602 1.05515 0 255 255
4.7615 2.58636 1.05324 0 255 255
4.76855 2.55259 1.05133 0 255 255
4.66385 2.47773 1.02653 0 255 255
4.74891 2.48478 1.04179 0 255 255
4.79933 2.47288 1.04942 0 255 255
4.8333 2.47119 1.05515 0 255 255
4.84936 2.46129 1.05705 0 255 255
4.81323 2.42396 1.04751 0 255 255
5.54075 2.74684 1.20206 0 255 255
4.87991 2.40015 1.05705 0 255 255
5.53943 2.66 1.19443 0 255 255
4.86335 2.29889 1.0456 0 255 255
5.50159 2.57947 1.18108 0 255 255
5.55417 2.58287 1.19062 0 255 255
5.50877 2.54075 1.17917 0 255 255
4.92756 2.25394 1.05324 0 255 255
4.97038 2.25466 1.06087 0 255 255
5.10956 2.28026 1.08758 0 255 255
4.96409 2.19667 1.05515 0 255 255
5.13277 2.25206 1.08949 0 255 255
5.0408 2.19285 1.0685 0 255 255
5.05668 2.18089 1.07041 0 255 255
5.18987 2.21902 1.09712 0 255 255
5.48603 2.32529 1.15818 0 255 255
5.15846 2.16736 1.08758 0 255 255
5.5549 2.31342 1.16963 0 255 255
5.48955 2.266 1.15436 0 255 255
5.48756 2.24502 1.15245 0 255 255
5.47639 2.22039 1.14864 0 255 255
5.30991 2.13457 1.11239 0 255 255
5.40778 2.1542 1.13147 0 255 255
5.22277 2.06152 1.0914 0 255 255
5.12866 2.00577 1.07041 0 255 255
5.11663 1.98256 1.06659 0 255 255
5.52606 2.12126 1.15055 0 255 255
5.28497 2.00968 1.09903 0 255 255
5.1994 1.95847 1.07995 0 255 255
5.15954 1.92497 1.07041 0 255 255
5.51545 2.03804 1.14292 0 255 255
5.54027 2.02745 1.14673 0 255 255
5.56179 1.99689 1.14864 0 255 255
5.57422 1.9619 1.14864 0 255 255
5.60817 1.95407 1.15436 0 255 255
5.605 1.93324 1.15245 0 255 255
5.51815 1.88391 1.13338 0 255 255
5.58914 1.88856 1.14673 0 255 255
5.25059 1.7558 1.07613 0 255 255
5.61953 1.85957 1.15055 0 255 255
5.63468 1.84496 1.15245 0 255 255
5.63079 1.82521 1.15055 0 255 255
5.66454 1.8165 1.15627 0 255 255
5.76378 1.82838 1.17535 0 255 255
5.82569 1.8279 1.1868 0 255 255
1.51088 0.463653 0.307194 0 255 255
1.51233 0.458904 0.307194 0 255 255
1.47615 0.442867 0.299562 0 255 255
1.50577 0.446602 0.305286 0 255 255
1.49775 0.439107 0.303378 0 255 255
1.48969 0.431668 0.30147 0 255 255
1.50991 0.432391 0.305286 0 255 255
1.50174 0.425234 0.303378 0 255 255
1.49362 0.417869 0.30147 0 255 255
1.49493 0.413175 0.30147 0 255 255
1.48675 0.405891 0.299562 0 255 255
1.49749 0.403774 0.30147 0 255 255
1.48927 0.396542 0.299562 0 255 255
1.5 0.394357 0.30147 0 255 255
1.49173 0.387176 0.299562 0 255 255
1.49294 0.382488 0.299562 0 255 255
1.49413 0.377796 0.299562 0 255 255
1.49525 0.373361 0.299562 0 255 255
1.48688 0.366314 0.297654 0 255 255
1.49763 0.363697 0.299562 0 255 255
1.48922 0.356704 0.297654 0 255 255
1.49982 0.354543 0.299562 0 255 255
1.49137 0.347601 0.297654 0 255 255
1.50202 0.345112 0.299562 0 255 255
1.49352 0.338223 0.297654 0 255 255
1.49458 0.33353 0.297654 0 255 255
1.49562 0.328833 0.297654 0 255 255
1.49664 0.324132 0.297654 0 255 255
1.49765 0.319429 0.297654 0 255 255
1.50826 0.31674 0.299562 0 255 255
1.49963 0.310013 0.297654 0 255 255
1.5006 0.3053 0.297654 0 255 255
1.49192 0.298657 0.295746 0 255 255
1.4928 0.29423 0.295746 0 255 255
1.49372 0.289539 0.295746 0 255 255
1.50427 0.286682 0.297654 0 255 255
1.49551 0.280147 0.295746 0 255 255
1.50604 0.277224 0.297654 0 255 255
1.49724 0.270745 0.295746 0 255 255
1.50775 0.267757 0.297654 0 255 255
1.49891 0.261332 0.295746 0 255 255
1.49973 0.256622 0.295746 0 255 255
1.50052 0.251909 0.295746 0 255 255
1.511 0.248789 0.297654 0 255 255
1.50208 0.242477 0.295746 0 255 255
1.50279 0.238019 0.295746 0 255 255
1.51323 0.234802 0.297654 0 255 255
1.51396 0.230046 0.297654 0 255 255
1.50497 0.223845 0.295746 0 255 255
1.50566 0.219116 0.295746 0 255 255
1.50634 0.214384 0.295746 0 255 255
1.50701 0.209651 0.295746 0 255 255
1.50766 0.204915 0.295746 0 255 255
1.49857 0.198887 0.293838 0 255 255
1.49918 0.194178 0.293838 0 255 255
1.50953 0.190697 0.295746 0 255 255
1.50038 0.184755 0.293838 0 255 255
1.50095 0.18004 0.293838 0 255 255
1.51126 0.176462 0.295746 0 255 255
1.5118 0.171714 0.295746 0 255 255
1.49282 0.164809 0.29193 0 255 255
1.50306 0.161427 0.293838 0 255 255
1.50356 0.156704 0.293838 0 255 255
1.50402 0.152242 0.293838 0 255 255
1.50454 0.146992 0.293838 0 255 255
1.4952 0.141601 0.29193 0 255 255
1.50541 0.137798 0.293838 0 255 255
1.50584 0.133068 0.293838 0 255 255
1.50625 0.128337 0.293838 0 255 255
1.49686 0.122802 0.29193 0 255 255
1.50703 0.11887 0.293838 0 255 255
1.50739 0.114135 0.293838 0 255 255
1.49795 0.108689 0.29193 0 255 255
1.50808 0.104662 0.293838 0 255 255
1.5084 0.099924 0.293838 0 255 255
1.50869 0.095447 0.293838 0 255 255
1.49918 0.090118 0.29193 0 255 255
1.50926 0.085967 0.293838 0 255 255
1.49972 0.080697 0.29193 0 255 255
1.50977 0.076482 0.293838 0 255 255
1.5002 0.071272 0.29193 0 255 255
1.51022 0.066994 0.293838 0 255 255
1.50062 0.061845 0.29193 0 255 255
1.491 0.056757 0.290022 0 255 255
1.49117 0.052073 0.290022 0 255 255
1.50113 0.047699 0.29193 0 255 255
1.51109 0.043264 0.293838 0 255 255
1.49159 0.038017 0.290022 0 255 255
1.51133 0.033769 0.293838 0 255 255
1.50161 0.028833 0.29193 0 255 255
1.5017 0.024115 0.29193 0 255 255
1.51158 0.019524 0.293838 0 255 255
1.50182 0.014679 0.29193 0 255 255
1.48222 0.010089 0.288114 0 255 255
1.50188 0.005505 0.29193 0 255 255
1.50189 0.000786 0.29193 0 255 255
1.5117 -0.003958 0.293838 0 255 255
1.49205 -0.008594 0.290022 0 255 255
1.50183 -0.013368 0.29193 0 255 255
1.50178 -0.018349 0.29193 0 255 255
1.50171 -0.023066 0.29193 0 255 255
1.51145 -0.027702 0.293838 0 255 255
1.51136 -0.03245 0.293838 0 255 255
1.51125 -0.037198 0.293838 0 255 255
1.51112 -0.041946 0.293838 0 255 255
1.50117 -0.04639 0.29193 0 255 255
1.51083 -0.051439 0.293838 0 255 255
1.50085 -0.055821 0.29193 0 255 255
1.51048 -0.060931 0.293838 0 255 255
1.50047 -0.06525 0.29193 0 255 255
1.51007 -0.070421 0.293838 0 255 255
1.50984 -0.075164 0.293838 0 255 255
1.50959 -0.079907 0.293838 0 255 255
1.50935 -0.084386 0.293838 0 255 255
1.50908 -0.089127 0.293838 0 255 255
1.50879 -0.093868 0.293838 0 255 255
1.50849 -0.098607 0.293838 0 255 255
1.50817 -0.103346 0.293838 0 255 255
1.50784 -0.108083 0.293838 0 255 255
1.50749 -0.11282 0.293838 0 255 255
1.50713 -0.117555 0.293838 0 255 255
1.50675 -0.122289 0.293838 0 255 255
1.50636 -0.127022 0.293838 0 255 255
1.50595 -0.131754 0.293838 0 255 255
1.50553 -0.136484 0.293838 0 255 255
1.5051 -0.141214 0.293838 0 255 255
1.50465 -0.145941 0.293838 0 255 255
1.50418 -0.150667 0.293838 0 255 255
1.5037 -0.155392 0.293838 0 255 255
1.50323 -0.159853 0.293838 0 255 255
1.51248 -0.165644 0.295746 0 255 255
1.50217 -0.169557 0.293838 0 255 255
1.50163 -0.174276 0.293838 0 255 255
1.51085 -0.179891 0.295746 0 255 255
1.50054 -0.183445 0.293838 0 255 255
1.50972 -0.189117 0.295746 0 255 255
1.50909 -0.194122 0.295746 0 255 255
1.50847 -0.198862 0.295746 0 255 255
1.50784 -0.2036 0.295746 0 255 255
1.50719 -0.208336 0.295746 0 255 255
1.50653 -0.21307 0.295746 0 255 255
1.50585 -0.217802 0.295746 0 255 255
1.50516 -0.222531 0.295746 0 255 255
1.51416 -0.228725 0.297654 0 255 255
1.50373 -0.231984 0.295746 0 255 255
1.51269 -0.238234 0.297654 0 255 255
1.50225 -0.241428 0.295746 0 255 255
1.50148 -0.246146 0.295746 0 255 255
1.51038 -0.25248 0.297654 0 255 255
1.51926 -0.258873 0.299562 0 255 255
1.50877 -0.261965 0.297654 0 255 255
1.50794 -0.266704 0.297654 0 255 255
1.51675 -0.27318 0.299562 0 255 255
1.50623 -0.276173 0.297654 0 255 255
1.50536 -0.280904 0.297654 0 255 255
1.50446 -0.285632 0.297654 0 255 255
1.5132 -0.292218 0.299562 0 255 255
1.51233 -0.296706 0.299562 0 255 255
1.50176 -0.299536 0.297654 0 255 255
1.51049 -0.305939 0.299562 0 255 255
1.49979 -0.309228 0.297654 0 255 255
1.51809 -0.317698 0.30147 0 255 255
1.50748 -0.320424 0.299562 0 255 255
1.51606 -0.32723 0.30147 0 255 255
1.50543 -0.32989 0.299562 0 255 255
1.51397 -0.336749 0.30147 0 255 255
1.50333 -0.339342 0.299562 0 255 255
1.51183 -0.346255 0.30147 0 255 255
1.51073 -0.351003 0.30147 0 255 255
1.50007 -0.353495 0.299562 0 255 255
1.5085 -0.360488 0.30147 0 255 255
1.50736 -0.365225 0.30147 0 255 255
1.5062 -0.369959 0.30147 0 255 255
1.50503 -0.374689 0.30147 0 255 255
1.51337 -0.381817 0.303378 0 255 255
1.51216 -0.386569 0.303378 0 255 255
1.51094 -0.391318 0.303378 0 255 255
1.5097 -0.396063 0.303378 0 255 255
1.50845 -0.400803 0.303378 0 255 255
1.51666 -0.408091 0.305286 0 255 255
1.5059 -0.410273 0.303378 0 255 255
1.5046 -0.415002 0.303378 0 255 255
1.51275 -0.422367 0.305286 0 255 255
1.52086 -0.429787 0.307194 0 255 255
1.51006 -0.431863 0.305286 0 255 255
1.5087 -0.436605 0.305286 0 255 255
1.50732 -0.441343 0.305286 0 255 255
1.50593 -0.446076 0.305286 0 255 255
1.49512 -0.447987 0.303378 0 255 255
1.51249 -0.458376 0.307194 0 255 255
1.50166 -0.460249 0.305286 0 255 255
1.50958 -0.46787 0.307194 0 255 255
1.5081 -0.47261 0.307194 0 255 255
1.51597 -0.480311 0.309102 0 255 255
1.5051 -0.482077 0.307194 0 255 255
1.49424 -0.483779 0.305286 0 255 255
1.50204 -0.491524 0.307194 0 255 255
1.49126 -0.492898 0.305286 0 255 255
1.4897 -0.49758 0.305286 0 255 255
1.46953 -0.49598 0.30147 0 255 255
9.43028 -3.21584 1.93666 0 255 255
9.45726 -3.25824 1.94429 0 255 255
9.5026 -3.3073 1.95574 0 255 255
9.50142 -3.34039 1.95765 0 255 255
9.49873 -3.40665 1.96146 0 255 255
9.48798 -3.43647 1.96146 0 255 255
9.49557 -3.47301 1.96528 0 255 255
9.50242 -3.51128 1.9691 0 255 255
9.49196 -3.53946 1.9691 0 255 255
9.51754 -3.5831 1.97673 0 255 255
9.53376 -3.62344 1.98245 0 255 255
9.5315 -3.65689 1.98436 0 255 255
9.52912 -3.69036 1.98627 0 255 255
9.53576 -3.72743 1.99008 0 255 255
9.53039 -3.79453 1.9939 0 255 255
9.53664 -3.83177 1.99772 0 255 255
9.54275 -3.86909 2.00153 0 255 255
9.55712 -3.91187 2.00726 0 255 255
9.55386 -3.94562 2.00917 0 255 255
9.56929 -3.98527 2.01489 0 255 255
9.57483 -4.02292 2.0187 0 255 255
9.57118 -4.05681 2.02061 0 255 255
9.56741 -4.09072 2.02252 0 255 255
9.5678 -4.16417 2.02824 0 255 255
9.57338 -4.20043 2.03206 0 255 255
9.57809 -4.23843 2.03588 0 255 255
9.58266 -4.2765 2.03969 0 255 255
9.58708 -4.31464 2.04351 0 255 255
9.60923 -4.36096 2.05114 0 255 255
9.60441 -4.39522 2.05305 0 255 255
9.59947 -4.42948 2.05496 0 255 255
9.6033 -4.4679 2.05877 0 255 255
9.59811 -4.50221 2.06068 0 255 255
9.59279 -4.53654 2.06259 0 255 255
9.59621 -4.5751 2.06641 0 255 255
9.59949 -4.61373 2.07022 0 255 255
9.60261 -4.65243 2.07404 0 255 255
9.60559 -4.69119 2.07785 0 255 255
9.60842 -4.73001 2.08167 0 255 255
9.61989 -4.77326 2.08739 0 255 255
9.60485 -4.80346 2.08739 0 255 255
9.63354 -4.8557 2.09693 0 255 255
9.64449 -4.89928 2.10266 0 255 255
9.63779 -4.93403 2.10457 0 255 255
9.64056 -5.01428 2.1122 0 255 255
9.63434 -5.04742 2.11411 0 255 255
9.6358 -5.08683 2.11792 0 255 255
9.65443 -5.13552 2.12556 0 255 255
9.67286 -5.18437 2.13319 0 255 255
9.6738 -5.22406 2.137 0 255 255
9.658 -5.29418 2.14082 0 255 255
9.65851 -5.33398 2.14463 0 255 255
9.67601 -5.38339 2.15227 0 255 255
9.65049 -5.40896 2.15036 0 255 255
9.69329 -5.47304 2.16372 0 255 255
9.68458 -5.50832 2.16562 0 255 255
9.69278 -5.55335 2.17135 0 255 255
9.67467 -5.62401 2.17516 0 255 255
8.69973 -5.0939 1.95956 0 255 255
9.72256 -5.9837 2.21905 0 255 255
9.71205 -6.01938 2.22096 0 255 255
9.74306 -6.08105 2.2324 0 255 255
9.75715 -6.13252 2.24004 0 255 255
9.75335 -6.17534 2.24385 0 255 255
9.75873 -6.22179 2.24958 0 255 255
9.75566 -6.26302 2.25339 0 255 255
9.75242 -6.3043 2.25721 0 255 255
9.72434 -6.32955 2.2553 0 255 255
9.78651 -6.41388 2.27438 0 255 255
9.79202 -6.4591 2.28011 0 255 255
9.79204 -6.54778 2.28965 0 255 255
9.78771 -6.58947 2.29346 0 255 255
9.78321 -6.63121 2.29728 0 255 255
9.81098 -6.69511 2.30873 0 255 255
9.81417 -6.74257 2.31445 0 255 255
9.80909 -6.78454 2.31827 0 255 255
9.81995 -6.83776 2.3259 0 255 255
9.82253 -6.88548 2.33162 0 255 255
9.83293 -6.93894 2.33926 0 255 255
9.81108 -6.9698 2.33926 0 255 255
9.84503 -7.04056 2.35261 0 255 255
9.84677 -7.08866 2.35834 0 255 255
9.84043 -7.18103 2.36788 0 255 255
9.85864 -7.23924 2.37742 0 255 255
9.82796 -7.26435 2.37551 0 255 255
9.88384 -7.35378 2.39459 0 255 255
9.87641 -7.39656 2.3984 0 255 255
9.88317 -7.45292 2.40604 0 255 255
9.89099 -7.50767 2.41367 0 255 255
9.89723 -7.56427 2.4213 0 255 255
9.89809 -7.61155 2.42703 0 255 255
9.89742 -7.66064 2.43275 0 255 255
9.90428 -7.71582 2.44038 0 255 255
9.91861 -7.77719 2.44992 0 255 255
9.91725 -7.82655 2.45565 0 255 255
9.92336 -7.88209 2.46328 0 255 255
9.92155 -7.93161 2.469 0 255 255
9.93482 -7.99351 2.47854 0 255 255
9.92492 -8.03704 2.48236 0 255 255
9.93766 -8.09919 2.4919 0 255 255
9.94253 -8.15527 2.49953 0 255 255
10.2837 -8.54377 2.59875 0 255 255
10.4451 -8.73345 2.64645 0 255 255
10.4176 -8.76622 2.64645 0 255 255
10.39 -8.79891 2.64645 0 255 255
10.3698 -8.83787 2.64836 0 255 255
10.342 -8.87041 2.64836 0 255 255
7.49032 -6.46547 1.9233 0 255 255
7.47739 -6.49541 1.92521 0 255 255
7.43477 -6.49949 1.91949 0 255 255
7.39221 -6.50336 1.91376 0 255 255
7.34969 -6.50703 1.90804 0 255 255
7.30722 -6.5105 1.90231 0 255 255
7.26481 -6.51376 1.89659 0 255 255
7.22973 -6.5234 1.89277 0 255 255
7.18013 -6.51969 1.88514 0 255 255
7.14512 -6.52897 1.88133 0 255 255
7.1029 -6.53145 1.8756 0 255 255
7.06793 -6.5404 1.87179 0 255 255
7.03299 -6.54919 1.86797 0 255 255
6.98373 -6.5444 1.86034 0 255 255
6.94171 -6.54611 1.85461 0 255 255
6.90687 -6.55437 1.8508 0 255 255
6.87204 -6.56248 1.84698 0 255 255
6.82901 -6.56482 1.84126 0 255 255
6.79424 -6.57259 1.83744 0 255 255
6.75246 -6.57336 1.83172 0 255 255
6.71074 -6.57394 1.82599 0 255 255
6.67722 -6.58004 1.82218 0 255 255
6.6356 -6.58025 1.81645 0 255 255
6.6068 -6.59528 1.81455 0 255 255
6.56527 -6.59513 1.80882 0 255 255
6.52381 -6.59479 1.8031 0 255 255
6.4893 -6.60125 1.79928 0 255 255
6.45481 -6.60756 1.79546 0 255 255
6.46137 -6.65598 1.8031 0 255 255
6.4745 -6.71157 1.81264 0 255 255
6.46697 -6.74605 1.81645 0 255 255
6.47283 -6.79476 1.82408 0 255 255
6.47844 -6.84358 1.83172 0 255 255
6.49054 -6.89965 1.84126 0 255 255
6.49565 -6.94869 1.84889 0 255 255
6.49383 -6.99064 1.85461 0 255 255
6.50513 -7.04707 1.86415 0 255 255
6.5095 -7.09641 1.87179 0 255 255
6.51362 -7.14584 1.87942 0 255 255
6.5175 -7.19537 1.88705 0 255 255
6.5277 -7.25229 1.89659 0 255 255
6.52452 -7.29471 1.90231 0 255 255
6.53417 -7.35186 1.91185 0 255 255
6.53703 -7.40178 1.91949 0 255 255
6.54612 -7.45917 1.92903 0 255 255
6.54715 -7.51043 1.93666 0 255 255
6.55566 -7.56806 1.9462 0 255 255
6.55747 -7.61838 1.95383 0 255 255
6.55902 -7.66878 1.96146 0 255 255
6.56669 -7.72675 1.971 0 255 255
6.57405 -7.78484 1.98054 0 255 255
6.58247 -7.84191 1.99008 0 255 255
6.58924 -7.90024 1.99962 0 255 255
6.60336 -7.9651 2.01107 0 255 255
6.59423 -8.01084 2.0168 0 255 255
7.86171 -9.61198 2.41367 0 255 255
7.80671 -9.60616 2.40604 0 255 255
7.75183 -9.60009 2.3984 0 255 255
7.70934 -9.60908 2.39459 0 255 255
7.66076 -9.61022 2.38886 0 255 255
7.62444 -9.62655 2.38696 0 255 255
7.57595 -9.62731 2.38123 0 255 255
7.52753 -9.62787 2.37551 0 255 255
7.47918 -9.62821 2.36978 0 255 255
7.4369 -9.63612 2.36597 0 255 255
7.39464 -9.64385 2.36215 0 255 255
7.34646 -9.64361 2.35643 0 255 255
7.29836 -9.64316 2.3507 0 255 255
7.26213 -9.65819 2.34879 0 255 255
7.21244 -9.65863 2.34307 0 255 255
7.17036 -9.66547 2.33926 0 255 255
7.13 -9.6709 2.33544 0 255 255
7.08799 -9.67742 2.33162 0 255 255
7.04431 -9.68499 2.32781 0 255 255
6.9966 -9.6832 2.32208 0 255 255
6.95639 -9.68797 2.31827 0 255 255
6.91452 -9.6938 2.31445 0 255 255
6.87437 -9.69825 2.31064 0 255 255
6.82918 -9.70613 2.30682 0 255 255
6.78741 -9.71145 2.303 0 255 255
6.74567 -9.71659 2.29919 0 255 255
6.69282 -9.70541 2.29155 0 255 255
6.66229 -9.72639 2.29155 0 255 255
6.62618 -9.73916 2.28965 0 255 255
6.57906 -9.73553 2.28392 0 255 255
6.53751 -9.73985 2.28011 0 255 255
6.49598 -9.744 2.27629 0 255 255
6.45992 -9.75618 2.27438 0 255 255
6.41845 -9.76002 2.27057 0 255 255
6.38239 -9.77192 2.26866 0 255 255
6.33563 -9.76721 2.26293 0 255 255
6.29429 -9.77057 2.25912 0 255 255
6.25298 -9.77375 2.2553 0 255 255
6.21527 -9.78615 2.25339 0 255 255
6.17402 -9.78902 2.24958 0 255 255
6.13282 -9.79173 2.24576 0 255 255
6.09166 -9.79428 2.24195 0 255 255
6.0557 -9.80502 2.24004 0 255 255
6.00947 -9.79889 2.23431 0 255 255
5.97355 -9.80933 2.2324 0 255 255
5.93255 -9.81125 2.22859 0 255 255
5.89159 -9.81301 2.22477 0 255 255
5.8557 -9.82304 2.22287 0 255 255
5.81482 -9.82449 2.21905 0 255 255
5.77398 -9.82578 2.21523 0 255 255
5.73319 -9.82692 2.21142 0 255 255
5.69737 -9.83639 2.20951 0 255 255
5.66154 -9.84573 2.2076 0 255 255
5.61598 -9.83789 2.20188 0 255 255
5.57537 -9.8384 2.19806 0 255 255
5.53962 -9.84731 2.19615 0 255 255
5.50387 -9.8561 2.19424 0 255 255
5.46812 -9.86475 2.19234 0 255 255
5.42764 -9.86468 2.18852 0 255 255
5.38721 -9.86446 2.1847 0 255 255
5.35152 -9.8727 2.1828 0 255 255
5.31117 -9.87218 2.17898 0 255 255
5.26917 -9.87241 2.17516 0 255 255
5.22893 -9.87157 2.17135 0 255 255
5.19333 -9.87926 2.16944 0 255 255
5.15772 -9.88682 2.16753 0 255 255
5.12213 -9.89426 2.16562 0 255 255
5.08653 -9.90157 2.16372 0 255 255
5.04648 -9.90001 2.1599 0 255 255
5.01093 -9.90706 2.15799 0 255 255
4.97538 -9.91398 2.15608 0 255 255
4.93983 -9.92077 2.15418 0 255 255
4.89994 -9.91864 2.15036 0 255 255
4.8558 -9.90754 2.14463 0 255 255
4.52051 -9.372 2.02252 0 255 255
4.60544 -9.62523 2.07404 0 255 255
4.69304 -9.88796 2.12746 0 255 255
4.67449 -9.9293 2.13319 0 255 255
4.64327 -9.94394 2.13319 0 255 255
4.60789 -9.94957 2.13128 0 255 255
4.56841 -9.94616 2.12746 0 255 255
4.53541 -9.96125 2.12746 0 255 255
4.50005 -9.9665 2.12556 0 255 255
4.46069 -9.96267 2.12174 0 255 255
4.42539 -9.96767 2.11983 0 255 255
4.3901 -9.97253 2.11792 0 255 255
4.35089 -9.96828 2.11411 0 255 255
4.31566 -9.97289 2.1122 0 255 255
4.28431 -9.9864 2.1122 0 255 255
4.24907 -9.99078 2.11029 0 255 255
4.21003 -9.98599 2.10647 0 255 255
4.1769 -9.9999 2.10647 0 255 255
4.14171 -10.0039 2.10457 0 255 255
4.10478 -10.0085 2.10266 0 255 255
4.07137 -10.0115 2.10075 0 255 255
4.03256 -10.0061 2.09693 0 255 255
4.0011 -10.0187 2.09693 0 255 255
3.95878 -10.0038 2.09121 0 255 255
3.92374 -10.0071 2.0893 0 255 255
3.89229 -10.0194 2.0893 0 255 255
3.85726 -10.0224 2.08739 0 255 255
3.82226 -10.0253 2.08549 0 255 255
3.73512 -9.98472 2.07213 0 255 255
3.71738 -10.0332 2.07976 0 255 255
3.68071 -10.0363 2.07785 0 255 255
3.64581 -10.0386 2.07595 0 255 255
3.60761 -10.0315 2.07213 0 255 255
3.5662 -10.015 2.06641 0 255 255
3.54451 -10.054 2.07213 0 255 255
3.51614 -10.0743 2.07404 0 255 255
3.46203 -10.0204 2.06068 0 255 255
3.39877 -9.93832 2.0416 0 255 255
3.40215 -10.0512 2.06259 0 255 255
3.37056 -10.0619 2.06259 0 255 255
3.33893 -10.0724 2.06259 0 255 255
3.30727 -10.0828 2.06259 0 255 255
3.27255 -10.0838 2.06068 0 255 255
3.23909 -10.0946 2.06068 0 255 255
3.20616 -10.0949 2.05877 0 255 255
3.17148 -10.0955 2.05686 0 255 255
3.13684 -10.0961 2.05496 0 255 255
3.10511 -10.1059 2.05496 0 255 255
3.07158 -10.1161 2.05496 0 255 255
3.03696 -10.1163 2.05305 0 255 255
3.00237 -10.1164 2.05114 0 255 255
2.97057 -10.1258 2.05114 0 255 255
2.93875 -10.135 2.05114 0 255 255
2.90419 -10.1348 2.04923 0 255 255
2.86789 -10.1349 2.04732 0 255 255
2.83604 -10.1439 2.04732 0 255 255
2.80154 -10.1433 2.04542 0 255 255
2.76966 -10.152 2.04542 0 255 255
2.7352 -10.1512 2.04351 0 255 255
2.7033 -10.1597 2.04351 0 255 255
2.66887 -10.1587 2.0416 0 255 255
2.63694 -10.167 2.0416 0 255 255
2.60256 -10.1657 2.03969 0 255 255
2.5682 -10.1644 2.03779 0 255 255
2.53626 -10.1724 2.03779 0 255 255
2.50429 -10.1803 2.03779 0 255 255
2.46998 -10.1786 2.03588 0 255 255
2.4357 -10.1767 2.03397 0 255 255
2.40147 -10.1748 2.03206 0 255 255
2.36949 -10.1823 2.03206 0 255 255
2.33749 -10.1897 2.03206 0 255 255
2.30547 -10.197 2.03206 0 255 255
2.27129 -10.1946 2.03015 0 255 255
2.24135 -10.2112 2.03206 0 255 255
2.20511 -10.199 2.02824 0 255 255
2.17306 -10.2059 2.02824 0 255 255
2.1392 -10.2131 2.02824 0 255 255
2.10711 -10.2197 2.02824 0 255 255
2.07304 -10.2167 2.02634 0 255 255
2.04093 -10.2232 2.02634 0 255 255
2.00691 -10.2199 2.02443 0 255 255
1.9748 -10.2261 2.02443 0 255 255
1.94083 -10.2227 2.02252 0 255 255
1.90871 -10.2287 2.02252 0 255 255
1.87656 -10.2346 2.02252 0 255 255
1.84266 -10.2308 2.02061 0 255 255
1.81051 -10.2366 2.02061 0 255 255
1.77834 -10.2422 2.02061 0 255 255
1.74616 -10.2477 2.02061 0 255 255
1.71395 -10.2532 2.02061 0 255 255
1.68173 -10.2585 2.02061 0 255 255
1.64615 -10.2543 2.0187 0 255 255
1.61545 -10.2692 2.02061 0 255 255
1.58318 -10.2742 2.02061 0 255 255
1.5509 -10.2791 2.02061 0 255 255
1.51716 -10.2742 2.0187 0 255 255
1.48488 -10.2789 2.0187 0 255 255
1.45121 -10.2738 2.0168 0 255 255
1.42027 -10.2881 2.0187 0 255 255
1.38794 -10.2925 2.0187 0 255 255
1.3538 -10.297 2.0187 0 255 255
1.32019 -10.2915 2.0168 0 255 255
1.28907 -10.3053 2.0187 0 255 255
1.25551 -10.2996 2.0168 0 255 255
1.22314 -10.3035 2.0168 0 255 255
1.19077 -10.3073 2.0168 0 255 255
1.15838 -10.3109 2.0168 0 255 255
1.12598 -10.3145 2.0168 0 255 255
1.09357 -10.318 2.0168 0 255 255
1.06115 -10.3214 2.0168 0 255 255
1.02872 -10.3247 2.0168 0 255 255
0.995337 -10.3181 2.01489 0 255 255
0.479342 -5.3185 1.03797 0 255 255
0.383542 -4.4105 0.860525 0 255 255
0.302657 -3.61939 0.705974 0 255 255
0.29665 -3.67898 0.717422 0 255 255
0.284333 -3.67011 0.715514 0 255 255
0.272161 -3.67103 0.715514 0 255 255
0.261321 -3.68166 0.717422 0 255 255
0.148231 -2.29222 0.446481 0 255 255
0.139824 -2.27308 0.442665 0 255 255
0.131538 -2.25391 0.438849 0 255 255
0.123916 -2.24451 0.436941 0 255 255
0.115843 -2.22528 0.433125 0 255 255
0.108852 -2.22564 0.433125 0 255 255
0.101859 -2.22597 0.433125 0 255 255
0.09403 -2.20666 0.429309 0 255 255
0.087097 -2.20694 0.429309 0 255 255
0.079423 -2.19741 0.427401 0 255 255
0.072196 -2.18784 0.425493 0 255 255
0.065322 -2.18806 0.425493 0 255 255
0.058186 -2.17844 0.423585 0 255 255
0.05111 -2.1688 0.421677 0 255 255
0.044297 -2.16895 0.421677 0 255 255
0.037313 -2.15926 0.419768 0 255 255
0.030529 -2.15937 0.419768 0 255 255
0.023637 -2.14964 0.41786 0 255 255
0.016807 -2.13988 0.415952 0 255 255
0.010084 -2.13993 0.415952 0 255 255
0.003346 -2.13013 0.414044 0 255 255
-0.003752 -2.14976 0.41786 0 255 255
-0.010458 -2.13992 0.415952 0 255 255
-0.017102 -2.13006 0.414044 0 255 255
-0.023903 -2.13982 0.415952 0 255 255
-0.030485 -2.12991 0.414044 0 255 255
-0.037176 -2.12981 0.414044 0 255 255
-0.043867 -2.12968 0.414044 0 255 255
-0.050557 -2.12953 0.414044 0 255 255
-0.056983 -2.11955 0.412136 0 255 255
-0.063642 -2.11936 0.412136 0 255 255
-0.0703 -2.11915 0.412136 0 255 255
-0.076957 -2.11892 0.412136 0 255 255
-0.084 -2.12848 0.414044 0 255 255
-0.090686 -2.1282 0.414044 0 255 255
-0.096923 -2.1181 0.412136 0 255 255
-0.103577 -2.11778 0.412136 0 255 255
-0.110599 -2.11743 0.412136 0 255 255
-0.117793 -2.12687 0.414044 0 255 255
-0.123901 -2.11669 0.412136 0 255 255
-0.131155 -2.12609 0.414044 0 255 255
-0.137833 -2.12567 0.414044 0 255 255
-0.083718 -2.11198 0.33488 0 255 255
-0.090353 -2.1117 0.33488 0 255 255
-0.096986 -2.11141 0.33488 0 255 255
-0.103987 -2.11108 0.33488 0 255 255
-0.110619 -2.11074 0.33488 0 255 255
-0.117797 -2.12024 0.336445 0 255 255
-0.123879 -2.11 0.33488 0 255 255
-0.131117 -2.11946 0.336445 0 255 255
-0.138416 -2.12889 0.33801 0 255 255
-0.145103 -2.12845 0.33801 0 255 255
-0.151086 -2.11813 0.336445 0 255 255
-0.158474 -2.1275 0.33801 0 255 255
-0.165157 -2.12699 0.33801 0 255 255
-0.172633 -2.1363 0.339575 0 255 255
-0.178517 -2.12591 0.33801 0 255 255
-0.185195 -2.12533 0.33801 0 255 255
-0.192759 -2.13458 0.339575 0 255 255
-0.200384 -2.1438 0.34114 0 255 255
-0.207118 -2.14316 0.34114 0 255 255
-0.215812 -2.16215 0.34427 0 255 255
-0.222603 -2.16146 0.34427 0 255 255
-0.229769 -2.16071 0.34427 0 255 255
-0.238707 -2.17962 0.347399 0 255 255
-0.245934 -2.17881 0.347399 0 255 255
-0.253534 -2.18789 0.348964 0 255 255
-0.261191 -2.19693 0.350529 0 255 255
-0.269288 -2.2059 0.352094 0 255 255
-0.276601 -2.205 0.352094 0 255 255
-0.284788 -2.21392 0.353659 0 255 255
-0.502226 -3.71943 0.594648 0 255 255
-0.517965 -3.74719 0.599342 0 255 255
-0.529735 -3.74554 0.599342 0 255 255
-0.540846 -3.74395 0.599342 0 255 255
-0.552605 -3.74223 0.599342 0 255 255
-0.565832 -3.75025 0.600907 0 255 255
-0.577611 -3.74845 0.600907 0 255 255
-0.590919 -3.75637 0.602472 0 255 255
-0.601152 -3.74475 0.600907 0 255 255
-0.61451 -3.75259 0.602472 0 255 255
-0.626296 -3.75064 0.602472 0 255 255
-0.639733 -3.75839 0.604037 0 255 255
-0.651537 -3.75636 0.604037 0 255 255
-0.665711 -3.7639 0.605602 0 255 255
-0.677532 -3.76179 0.605602 0 255 255
-0.689346 -3.75965 0.605602 0 255 255
-0.701154 -3.75746 0.605602 0 255 255
-0.712955 -3.75524 0.605602 0 255 255
-0.726622 -3.76268 0.607166 0 255 255
-1.48639 -7.56922 1.22216 0 255 255
-1.51016 -7.56451 1.22216 0 255 255
-1.53589 -7.56941 1.22372 0 255 255
-1.56165 -7.57422 1.22529 0 255 255
-1.58614 -7.57922 1.22685 0 255 255
-1.612 -7.58386 1.22842 0 255 255
-1.63714 -7.57847 1.22842 0 255 255
-1.66094 -7.57329 1.22842 0 255 255
-1.68769 -7.58761 1.23155 0 255 255
-1.7137 -7.59191 1.23311 0 255 255
-1.73754 -7.58649 1.23311 0 255 255
-1.7636 -7.59061 1.23468 0 255 255
-1.78876 -7.58472 1.23468 0 255 255
-1.81717 -7.59828 1.23781 0 255 255
-1.84104 -7.59253 1.23781 0 255 255
-1.86724 -7.5963 1.23937 0 255 255
-1.89109 -7.5904 1.23937 0 255 255
-1.91735 -7.594 1.24093 0 255 255
-0.316006 -1.20369 0.197173 0 255 255
-0.322324 -1.21223 0.198737 0 255 255
-0.326131 -1.21122 0.198737 0 255 255
-0.329934 -1.21019 0.198737 0 255 255
-0.333734 -1.20914 0.198737 0 255 255
-0.337531 -1.20809 0.198737 0 255 255
-0.341325 -1.20702 0.198737 0 255 255
-0.347833 -1.21544 0.200302 0 255 255
-0.348902 -1.20485 0.198737 0 255 255
-0.355463 -1.21323 0.200302 0 255 255
-0.356466 -1.20264 0.198737 0 255 255
-0.363079 -1.21097 0.200302 0 255 255
-0.369747 -1.21928 0.201867 0 255 255
-0.37068 -1.20867 0.200302 0 255 255
-0.377401 -1.21693 0.201867 0 255 255
-0.378267 -1.20631 0.200302 0 255 255
-0.382055 -1.20512 0.200302 0 255 255
-0.385839 -1.20391 0.200302 0 255 255
-0.389619 -1.2027 0.200302 0 255 255
-0.396469 -1.21085 0.201867 0 255 255
-0.397168 -1.20022 0.200302 0 255 255
-0.400937 -1.19897 0.200302 0 255 255
-0.408074 -1.20699 0.201867 0 255 255
-0.408671 -1.19636 0.200302 0 255 255
-0.41565 -1.2044 0.201867 0 255 255
-0.419431 -1.20309 0.201867 0 255 255
-0.42649 -1.21108 0.203432 0 255 255
-0.423672 -1.19113 0.200302 0 255 255
-0.430751 -1.19908 0.201867 0 255 255
-0.437885 -1.20701 0.203432 0 255 255
-0.441464 -1.20571 0.203432 0 255 255
-0.44525 -1.20431 0.203432 0 255 255
-0.449241 -1.20283 0.203432 0 255 255
-0.453018 -1.20141 0.203432 0 255 255
-0.460303 -1.20921 0.204997 0 255 255
-0.4641 -1.20776 0.204997 0 255 255
-0.467892 -1.2063 0.204997 0 255 255
-0.47528 -1.21402 0.206562 0 255 255
-0.479092 -1.21252 0.206562 0 255 255
-0.47924 -1.20183 0.204997 0 255 255
-0.4867 -1.20949 0.206562 0 255 255
-0.486782 -1.1988 0.204997 0 255 255
-0.49429 -1.2064 0.206562 0 255 255
-0.498078 -1.20484 0.206562 0 255 255
-0.498059 -1.19416 0.204997 0 255 255
-0.505638 -1.20169 0.206562 0 255 255
-0.51327 -1.20919 0.208127 0 255 255
-0.513179 -1.19849 0.206562 0 255 255
-0.516941 -1.19687 0.206562 0 255 255
-0.524643 -1.2043 0.208127 0 255 255
-0.528424 -1.20264 0.208127 0 255 255
-0.528198 -1.19195 0.206562 0 255 255
-0.54 -1.20832 0.209691 0 255 255
-0.539735 -1.19761 0.208127 0 255 255
-0.547581 -1.2049 0.209691 0 255 255
-0.547249 -1.1942 0.208127 0 255 255
-0.550998 -1.19247 0.208127 0 255 255
-0.554742 -1.19073 0.208127 0 255 255
-0.562679 -1.19792 0.209691 0 255 255
-0.56644 -1.19615 0.209691 0 255 255
-0.570195 -1.19437 0.209691 0 255 255
-0.578227 -1.20147 0.211256 0 255 255
-0.581999 -1.19965 0.211256 0 255 255
-0.581426 -1.18894 0.209691 0 255 255
-0.580791 -1.17825 0.208127 0 255 255
-0.588885 -1.18526 0.209691 0 255 255
-0.592605 -1.18341 0.209691 0 255 255
-0.59632 -1.18154 0.209691 0 255 255
-0.609194 -1.19716 0.212821 0 255 255
-0.612952 -1.19524 0.212821 0 255 255
-0.616495 -1.19342 0.212821 0 255 255
-0.620242 -1.19147 0.212821 0 255 255
-0.623982 -1.18952 0.212821 0 255 255
-0.636946 -1.20502 0.215951 0 255 255
-0.155955 -0.216317 0.042251 0 255 255
-0.168277 -0.231783 0.045381 0 255 255
-0.139866 -0.191382 0.037557 0 255 255
-0.152135 -0.20688 0.040686 0 255 255
-0.146908 -0.198463 0.039122 0 255 255
-0.141597 -0.190105 0.037557 0 255 255
-0.154114 -0.20541 0.040686 0 255 255
-0.148772 -0.197069 0.039122 0 255 255
-0.167317 -0.220193 0.043816 0 255 255
-0.162008 -0.211821 0.042251 0 255 255
-0.168698 -0.219138 0.043816 0 255 255
-0.175435 -0.226414 0.045381 0 255 255
-0.163997 -0.210285 0.042251 0 255 255
-0.176854 -0.225307 0.045381 0 255 255
-0.177561 -0.22475 0.045381 0 255 255
-0.172119 -0.216461 0.043816 0 255 255
-0.172798 -0.215919 0.043816 0 255 255
-0.16728 -0.207683 0.042251 0 255 255
-0.19281 -0.237846 0.048511 0 255 255
-0.181069 -0.221934 0.045381 0 255 255
-0.175498 -0.21373 0.043816 0 255 255
-0.188752 -0.228405 0.046946 0 255 255
-0.195784 -0.235405 0.048511 0 255 255
-0.202862 -0.242362 0.050076 0 255 255
-0.197259 -0.23417 0.048511 0 255 255
-0.210768 -0.248617 0.05164 0 255 255
-0.205137 -0.24044 0.050076 0 255 255
-0.212326 -0.247287 0.05164 0 255 255
-0.213101 -0.246619 0.05164 0 255 255
-0.220356 -0.253402 0.053205 0 255 255
-0.227656 -0.260141 0.05477 0 255 255
-0.228472 -0.259424 0.05477 0 255 255
-0.229286 -0.258705 0.05477 0 255 255
-0.243246 -0.272725 0.0579 0 255 255
-0.244101 -0.27196 0.0579 0 255 255
-0.244954 -0.271192 0.0579 0 255 255
-0.252449 -0.277729 0.059465 0 255 255
-0.25332 -0.276935 0.059465 0 255 255
-0.260878 -0.283404 0.06103 0 255 255
-0.261767 -0.282584 0.06103 0 255 255
-0.276123 -0.296209 0.064159 0 255 255
-0.283809 -0.302544 0.065724 0 255 255
-0.291538 -0.308833 0.067289 0 255 255
-0.292507 -0.307915 0.067289 0 255 255
-0.293473 -0.306995 0.067289 0 255 255
-0.294489 -0.30602 0.067289 0 255 255
-0.309191 -0.319284 0.070419 0 255 255
-0.3033 -0.311237 0.068854 0 255 255
-0.304276 -0.310283 0.068854 0 255 255
-0.305249 -0.309325 0.068854 0 255 255
-0.320138 -0.322381 0.071984 0 255 255
-0.314168 -0.314388 0.070419 0 255 255
-0.315154 -0.313399 0.070419 0 255 255
-0.330188 -0.326292 0.073549 0 255 255
-0.324164 -0.318333 0.071984 0 255 255
-0.31804 -0.31047 0.070419 0 255 255
-0.326103 -0.316347 0.071984 0 255 255
-0.334206 -0.322176 0.073549 0 255 255
-0.328084 -0.314292 0.071984 0 255 255
-0.343377 -0.326879 0.075113 0 255 255
-0.351577 -0.332586 0.076678 0 255 255
-0.345424 -0.324715 0.075113 0 255 255
-0.368095 -0.343855 0.079808 0 255 255
-0.369174 -0.342697 0.079808 0 255 255
-0.362989 -0.334839 0.078243 0 255 255
-0.364039 -0.333697 0.078243 0 255 255
-0.350482 -0.31925 0.075113 0 255 255
-0.366128 -0.331403 0.078243 0 255 255
-0.374511 -0.336856 0.079808 0 255 255
-0.382931 -0.34226 0.081373 0 255 255
-0.37662 -0.334497 0.079808 0 255 255
-0.377669 -0.333312 0.079808 0 255 255
-0.378714 -0.332124 0.079808 0 255 255
-0.379756 -0.330932 0.079808 0 255 255
-0.373327 -0.323272 0.078243 0 255 255
-0.374397 -0.322032 0.078243 0 255 255
-0.382915 -0.327272 0.079808 0 255 255
-0.376469 -0.319608 0.078243 0 255 255
-0.377416 -0.318489 0.078243 0 255 255
-0.378414 -0.317302 0.078243 0 255 255
-0.394586 -0.328756 0.081373 0 255 255
-0.387952 -0.321284 0.079808 0 255 255
-0.381333 -0.313788 0.078243 0 255 255
-0.389963 -0.318841 0.079808 0 255 255
-0.398629 -0.323842 0.081373 0 255 255
-0.376588 -0.303977 0.076678 0 255 255
-0.392951 -0.315151 0.079808 0 255 255
-0.393939 -0.313915 0.079808 0 255 255
-0.394923 -0.312676 0.079808 0 255 255
-0.395904 -0.311434 0.079808 0 255 255
-0.381316 -0.298024 0.076678 0 255 255
-0.390052 -0.302882 0.078243 0 255 255
-0.398821 -0.307689 0.079808 0 255 255
-0.391947 -0.300426 0.078243 0 255 255
-0.385031 -0.293209 0.076678 0 255 255
-0.393827 -0.297957 0.078243 0 255 255
-0.402656 -0.302653 0.079808 0 255 255
-0.419433 -0.313205 0.082938 0 255 255
-0.420415 -0.311886 0.082938 0 255 255
-0.405491 -0.298844 0.079808 0 255 255
-0.422366 -0.309238 0.082938 0 255 255
-0.423335 -0.30791 0.082938 0 255 255
-0.416295 -0.300794 0.081373 0 255 255
-0.409214 -0.293725 0.079808 0 255 255
-0.410135 -0.292438 0.079808 0 255 255
-0.419111 -0.296857 0.081373 0 255 255
-0.411964 -0.289856 0.079808 0 255 255
-0.412873 -0.28856 0.079808 0 255 255
-0.42189 -0.292894 0.081373 0 255 255
-0.422809 -0.291567 0.081373 0 255 255
-0.423722 -0.290237 0.081373 0 255 255
-0.4083 -0.277793 0.078243 0 255 255
-0.433721 -0.2931 0.082938 0 255 255
-0.43464 -0.291736 0.082938 0 255 255
-0.419118 -0.279411 0.079808 0 255 255
-0.419994 -0.278093 0.079808 0 255 255
-0.420865 -0.276772 0.079808 0 255 255
-0.430002 -0.28085 0.081373 0 255 255
-0.422596 -0.274123 0.079808 0 255 255
-0.423455 -0.272794 0.079808 0 255 255
-0.42431 -0.271462 0.079808 0 255 255
-0.433497 -0.275424 0.081373 0 255 255
-0.426007 -0.268791 0.079808 0 255 255
-0.42685 -0.267451 0.079808 0 255 255
-0.436074 -0.271326 0.081373 0 255 255
-0.436924 -0.269955 0.081373 0 255 255
-0.429351 -0.263416 0.079808 0 255 255
-0.430131 -0.262141 0.079808 0 255 255
-0.422502 -0.255675 0.078243 0 255 255
-0.43177 -0.259433 0.079808 0 255 255
-0.441065 -0.263136 0.081373 0 255 255
-0.441889 -0.261749 0.081373 0 255 255
-0.442709 -0.260359 0.081373 0 255 255
-0.434996 -0.253987 0.079808 0 255 255
-0.444336 -0.257573 0.081373 0 255 255
-0.436583 -0.251249 0.079808 0 255 255
-0.445946 -0.254776 0.081373 0 255 255
-0.438153 -0.248501 0.079808 0 255 255
-0.456144 -0.256814 0.082938 0 255 255
-0.448327 -0.250562 0.081373 0 255 255
-0.457749 -0.253943 0.082938 0 255 255
-0.449893 -0.24774 0.081373 0 255 255
-0.450669 -0.246325 0.081373 0 255 255
-0.45144 -0.244908 0.081373 0 255 255
-0.452208 -0.243489 0.081373 0 255 255
-0.45297 -0.242067 0.081373 0 255 255
-0.453729 -0.240643 0.081373 0 255 255
-0.454482 -0.239216 0.081373 0 255 255
-0.463986 -0.24236 0.082938 0 255 255
-0.447208 -0.23181 0.079808 0 255 255
-0.465541 -0.239359 0.082938 0 255 255
-0.448655 -0.228996 0.079808 0 255 255
-0.458184 -0.232048 0.081373 0 255 255
-0.45891 -0.230607 0.081373 0 255 255
-0.459633 -0.229164 0.081373 0 255 255
-0.451497 -0.22334 0.079808 0 255 255
-0.461063 -0.226272 0.081373 0 255 255
-0.452892 -0.220499 0.079808 0 255 255
-0.462476 -0.22337 0.081373 0 255 255
-0.445324 -0.213459 0.078243 0 255 255
-0.463832 -0.220541 0.081373 0 255 255
-0.455627 -0.21479 0.079808 0 255 255
-0.456299 -0.213358 0.079808 0 255 255
-0.448007 -0.207768 0.078243 0 255 255
-0.457631 -0.210487 0.079808 0 255 255
-0.45829 -0.209048 0.079808 0 255 255
-0.458944 -0.207607 0.079808 0 255 255
-0.459594 -0.206164 0.079808 0 255 255
-0.469264 -0.208734 0.081373 0 255 255
-0.460845 -0.203353 0.079808 0 255 255
-0.461482 -0.201904 0.079808 0 255 255
-0.462114 -0.200453 0.079808 0 255 255
-0.471815 -0.202903 0.081373 0 255 255
-0.47245 -0.201419 0.081373 0 255 255
-0.47308 -0.199934 0.081373 0 255 255
-0.473706 -0.198447 0.081373 0 255 255
-0.465205 -0.19317 0.079808 0 255 255
-0.46581 -0.191708 0.079808 0 255 255
-0.46641 -0.190243 0.079808 0 255 255
-0.467005 -0.188777 0.079808 0 255 255
-0.467596 -0.187309 0.079808 0 255 255
-0.468182 -0.185839 0.079808 0 255 255
-0.468764 -0.184367 0.079808 0 255 255
-0.478543 -0.18648 0.081373 0 255 255
-0.460699 -0.177861 0.078243 0 255 255
-0.479706 -0.183469 0.081373 0 255 255
-0.471043 -0.178462 0.079808 0 255 255
-0.471571 -0.177064 0.079808 0 255 255
-0.481382 -0.179024 0.081373 0 255 255
-0.472674 -0.174098 0.079808 0 255 255
-0.482497 -0.175996 0.081373 0 255 255
-0.473759 -0.171124 0.079808 0 255 255
-0.474294 -0.169635 0.079808 0 255 255
-0.474824 -0.168144 0.079808 0 255 255
-0.484671 -0.169919 0.081373 0 255 255
-0.466541 -0.161919 0.078243 0 255 255
-0.485729 -0.166871 0.081373 0 255 255
-0.4769 -0.162164 0.079808 0 255 255
-0.477407 -0.160665 0.079808 0 255 255
-0.477909 -0.159165 0.079808 0 255 255
-0.478407 -0.157662 0.079808 0 255 255
-0.48829 -0.159221 0.081373 0 255 255
-0.488788 -0.157686 0.081373 0 255 255
-0.479872 -0.153147 0.079808 0 255 255
-0.48035 -0.151638 0.079808 0 255 255
-0.480824 -0.150128 0.079808 0 255 255
-0.481294 -0.148617 0.079808 0 255 255
-0.481758 -0.147104 0.079808 0 255 255
-0.491673 -0.148445 0.081373 0 255 255
-0.482673 -0.144075 0.079808 0 255 255
-0.47365 -0.139762 0.078243 0 255 255
-0.483569 -0.141039 0.079808 0 255 255
-0.474519 -0.136784 0.078243 0 255 255
-0.484445 -0.137998 0.079808 0 255 255
-0.494384 -0.139151 0.081373 0 255 255
-0.475764 -0.132388 0.078243 0 255 255
-0.485701 -0.133511 0.079808 0 255 255
-0.49565 -0.134572 0.081373 0 255 255
-0.48653 -0.130456 0.079808 0 255 255
-0.486938 -0.128927 0.079808 0 255 255
-0.468229 -0.122401 0.076678 0 255 255
-0.468611 -0.120929 0.076678 0 255 255
-0.46901 -0.119375 0.076678 0 255 255
-0.469362 -0.117983 0.076678 0 255 255
-0.479317 -0.118885 0.078243 0 255 255
-0.479688 -0.117379 0.078243 0 255 255
-0.480054 -0.115871 0.078243 0 255 255
-0.470807 -0.112075 0.076678 0 255 255
-0.471157 -0.110596 0.076678 0 255 255
-0.471502 -0.109115 0.076678 0 255 255
-0.481472 -0.10983 0.078243 0 255 255
-0.472178 -0.10615 0.076678 0 255 255
-0.482153 -0.106802 0.078243 0 255 255
-0.482486 -0.105287 0.078243 0 255 255
-0.482814 -0.103771 0.078243 0 255 255
-0.473458 -0.100291 0.076678 0 255 255
-0.47377 -0.098803 0.076678 0 255 255
-0.483754 -0.0993 0.078243 0 255 255
-0.474382 -0.095825 0.076678 0 255 255
-0.474681 -0.094334 0.076678 0 255 255
-0.484668 -0.094737 0.078243 0 255 255
-0.484963 -0.093214 0.078243 0 255 255
-0.475549 -0.089856 0.076678 0 255 255
-0.485539 -0.090165 0.078243 0 255 255
-0.476104 -0.086866 0.076678 0 255 255
-0.486096 -0.087112 0.078243 0 255 255
-0.47664 -0.083873 0.076678 0 255 255
-0.476901 -0.082375 0.076678 0 255 255
-0.477158 -0.080877 0.076678 0 255 255
-0.477409 -0.079377 0.076678 0 255 255
-0.45816 -0.074698 0.073549 0 255 255
-0.477899 -0.076376 0.076678 0 255 255
-0.478136 -0.074874 0.076678 0 255 255
-0.468594 -0.071956 0.075113 0 255 255
-0.459051 -0.069015 0.073549 0 255 255
-0.459265 -0.067573 0.073549 0 255 255
-0.459475 -0.066129 0.073549 0 255 255
-0.469461 -0.066062 0.075113 0 255 255
-0.469666 -0.064587 0.075113 0 255 255
-0.469867 -0.063111 0.075113 0 255 255
-0.470063 -0.061635 0.075113 0 255 255
-0.460457 -0.058904 0.073549 0 255 255
-0.46064 -0.057457 0.073549 0 255 255
-0.460818 -0.05601 0.073549 0 255 255
-0.460992 -0.054562 0.073549 0 255 255
-0.451349 -0.051983 0.071984 0 255 255
-0.461326 -0.051664 0.073549 0 255 255
-0.461486 -0.050215 0.073549 0 255 255
-0.461641 -0.048765 0.073549 0 255 255
-0.461792 -0.047314 0.073549 0 255 255
-0.461939 -0.045863 0.073549 0 255 255
-0.462073 -0.044493 0.073549 0 255 255
-0.432707 -0.040293 0.068854 0 255 255
-0.432832 -0.038934 0.068854 0 255 255
-0.452632 -0.039282 0.071984 0 255 255
-0.452753 -0.03786 0.071984 0 255 255
-0.443024 -0.035645 0.070419 0 255 255
-0.452982 -0.035014 0.071984 0 255 255
-0.44324 -0.032861 0.070419 0 255 255
-0.433489 -0.030769 0.068854 0 255 255
-0.443437 -0.030075 0.070419 0 255 255
-0.44353 -0.028682 0.070419 0 255 255
-0.433759 -0.026682 0.068854 0 255 255
-0.433837 -0.025395 0.068854 0 255 255
-0.433914 -0.024032 0.068854 0 255 255
-0.433988 -0.022668 0.068854 0 255 255
-0.443922 -0.021789 0.070419 0 255 255
-0.434122 -0.019941 0.068854 0 255 255
-0.44405 -0.018999 0.070419 0 255 255
-0.424369 -0.016822 0.067289 0 255 255
-0.43429 -0.015849 0.068854 0 255 255
-0.424466 -0.014155 0.067289 0 255 255
-0.434381 -0.01312 0.068854 0 255 255
-0.43442 -0.011755 0.068854 0 255 255
-0.424581 -0.010154 0.067289 0 255 255
-0.434484 -0.009101 0.068854 0 255 255
-0.43451 -0.007736 0.068854 0 255 255
-0.424657 -0.006226 0.067289 0 255 255
-0.43455 -0.005006 0.068854 0 255 255
-0.424688 -0.003558 0.067289 0 255 255
-0.424697 -0.002224 0.067289 0 255 255
-0.434578 -0.00091 0.068854 0 255 255
-0.434579 0.000455 0.068854 0 255 255
-0.414822 0.001738 0.065724 0 255 255
-0.424691 0.003113 0.067289 0 255 255
-0.424679 0.004447 0.067289 0 255 255
-0.424663 0.005782 0.067289 0 255 255
-0.424643 0.007116 0.067289 0 255 255
-0.424618 0.00845 0.067289 0 255 255
-0.424591 0.009709 0.067289 0 255 255
-0.424559 0.011043 0.067289 0 255 255
-0.424522 0.012377 0.067289 0 255 255
-0.414609 0.013392 0.065724 0 255 255
-0.424436 0.015044 0.067289 0 255 255
-0.434256 0.016758 0.068854 0 255 255
-0.424333 0.017711 0.067289 0 255 255
-0.424275 0.019044 0.067289 0 255 255
-0.424213 0.020376 0.067289 0 255 255
-0.424147 0.021709 0.067289 0 255 255
-0.424081 0.022967 0.067289 0 255 255
-0.433867 0.024865 0.068854 0 255 255
-0.423928 0.025632 0.067289 0 255 255
-0.433703 0.02759 0.068854 0 255 255
-0.423754 0.028369 0.067289 0 255 255
-0.433515 0.03039 0.068854 0 255 255
-0.423573 0.030957 0.067289 0 255 255
-0.423473 0.032287 0.067289 0 255 255
-0.42337 0.033617 0.067289 0 255 255
-0.423262 0.034947 0.067289 0 255 255
-0.42315 0.036277 0.067289 0 255 255
-0.432872 0.038481 0.068854 0 255 255
-0.422914 0.038935 0.067289 0 255 255
-0.42279 0.040263 0.067289 0 255 255
-0.43249 0.042558 0.068854 0 255 255
-0.422528 0.042919 0.067289 0 255 255
-0.432222 0.0452 0.068854 0 255 255
-0.432078 0.046557 0.068854 0 255 255
-0.43193 0.047914 0.068854 0 255 255
-0.421964 0.048151 0.067289 0 255 255
-0.43162 0.050627 0.068854 0 255 255
-0.421653 0.050802 0.067289 0 255 255
-0.431294 0.053338 0.068854 0 255 255
-0.431124 0.054693 0.068854 0 255 255
-0.421156 0.054773 0.067289 0 255 255
-0.430772 0.057401 0.068854 0 255 255
-0.430589 0.058754 0.068854 0 255 255
-0.420621 0.05874 0.067289 0 255 255
-0.420445 0.059988 0.067289 0 255 255
-0.430027 0.062734 0.068854 0 255 255
-0.429828 0.064085 0.068854 0 255 255
-0.429625 0.065435 0.068854 0 255 255
-0.429417 0.066784 0.068854 0 255 255
-0.41945 0.066584 0.067289 0 255 255
-0.428989 0.069481 0.068854 0 255 255
-0.428769 0.070829 0.068854 0 255 255
-0.428544 0.072175 0.068854 0 255 255
-0.428315 0.073521 0.068854 0 255 255
-0.428095 0.074791 0.068854 0 255 255
-0.437582 0.077866 0.070419 0 255 255
-0.417898 0.075719 0.067289 0 255 255
-0.437084 0.080614 0.070419 0 255 255
-0.436829 0.081987 0.070419 0 255 255
-0.436569 0.083359 0.070419 0 255 255
-0.426609 0.082847 0.068854 0 255 255
-0.436037 0.0861 0.070419 0 255 255
-0.435764 0.08747 0.070419 0 255 255
-0.435487 0.088838 0.070419 0 255 255
-0.42555 0.088127 0.068854 0 255 255
-0.434936 0.091497 0.070419 0 255 255
-0.424988 0.090799 0.068854 0 255 255
-0.444005 0.096322 0.071984 0 255 255
-0.434055 0.095592 0.070419 0 255 255
-0.45303 0.101264 0.073549 0 255 255
-0.433445 0.098317 0.070419 0 255 255
-0.433134 0.099679 0.070419 0 255 255
-0.432819 0.101039 0.070419 0 255 255
-0.442111 0.104673 0.071984 0 255 255
-0.432194 0.103681 0.070419 0 255 255
-0.45106 0.109706 0.073549 0 255 255
-0.441123 0.108759 0.071984 0 255 255
-0.44078 0.110144 0.071984 0 255 255
-0.450006 0.113953 0.073549 0 255 255
-0.440079 0.112911 0.071984 0 255 255
-0.439722 0.114293 0.071984 0 255 255
-0.448912 0.118189 0.073549 0 255 255
-0.448559 0.11952 0.073549 0 255 255
-0.448182 0.120929 0.073549 0 255 255
-0.457327 0.124939 0.075113 0 255 255
-0.456932 0.126375 0.075113 0 255 255
-0.456533 0.12781 0.075113 0 255 255
-0.465632 0.131936 0.076678 0 255 255
-0.465215 0.133398 0.076678 0 255 255
-0.455308 0.132107 0.075113 0 255 255
-0.454891 0.133537 0.075113 0 255 255
-0.454469 0.134965 0.075113 0 255 255
-0.463502 0.139234 0.076678 0 255 255
-0.453612 0.137818 0.075113 0 255 255
-0.462643 0.142063 0.076678 0 255 255
-0.471627 0.146444 0.078243 0 255 255
-0.471165 0.147925 0.078243 0 255 255
-0.461284 0.146416 0.076678 0 255 255
-0.460821 0.147865 0.076678 0 255 255
-0.460355 0.149312 0.076678 0 255 255
-0.469269 0.153834 0.078243 0 255 255
-0.459407 0.152201 0.076678 0 255 255
-0.468293 0.15678 0.078243 0 255 255
-0.477154 0.161415 0.079808 0 255 255
-0.467326 0.159637 0.078243 0 255 255
-0.466823 0.161104 0.078243 0 255 255
-0.466314 0.16257 0.078243 0 255 255
-0.475117 0.167315 0.079808 0 255 255
-0.465284 0.165497 0.078243 0 255 255
-0.464761 0.166958 0.078243 0 255 255
-0.464235 0.168417 0.078243 0 255 255
-0.472977 0.173272 0.079808 0 255 255
-0.453933 0.167825 0.076678 0 255 255
-0.462657 0.172704 0.078243 0 255 255
-0.462112 0.174157 0.078243 0 255 255
-0.461563 0.175608 0.078243 0 255 255
-0.470229 0.180598 0.079808 0 255 255
-0.469659 0.182075 0.079808 0 255 255
-0.478282 0.187148 0.081373 0 255 255
-0.468506 0.185022 0.079808 0 255 255
-0.486306 0.193721 0.082938 0 255 255
-0.467367 0.18788 0.079808 0 255 255
-0.466774 0.189348 0.079808 0 255 255
-0.457036 0.187072 0.078243 0 255 255
-0.456446 0.188507 0.078243 0 255 255
-0.464969 0.193738 0.079808 0 255 255
-0.464358 0.195198 0.079808 0 255 255
-0.463742 0.196656 0.079808 0 255 255
-0.454042 0.194227 0.078243 0 255 255
-0.471566 0.203479 0.081373 0 255 255
-0.461904 0.200937 0.079808 0 255 255
-0.452226 0.198419 0.078243 0 255 255
-0.4516 0.199839 0.078243 0 255 255
-0.459989 0.205282 0.079808 0 255 255
-0.459342 0.206726 0.079808 0 255 255
-0.467684 0.212249 0.081373 0 255 255
-0.458034 0.209608 0.079808 0 255 255
-0.457373 0.211046 0.079808 0 255 255
-0.465701 0.216566 0.081373 0 255 255
-0.447133 0.209643 0.078243 0 255 255
-0.464331 0.219488 0.081373 0 255 255
-0.454723 0.216697 0.079808 0 255 255
-0.45404 0.218124 0.079808 0 255 255
-0.453353 0.21955 0.079808 0 255 255
-0.452699 0.220894 0.079808 0 255 255
-0.452003 0.222315 0.079808 0 255 255
-0.451302 0.223734 0.079808 0 255 255
-0.450597 0.225151 0.079808 0 255 255
-0.458709 0.231008 0.081373 0 255 255
-0.457981 0.232448 0.081373 0 255 255
-0.457248 0.233885 0.081373 0 255 255
-0.447732 0.230795 0.079808 0 255 255
-0.447005 0.232201 0.079808 0 255 255
-0.446273 0.233604 0.079808 0 255 255
-0.445578 0.234927 0.079808 0 255 255
-0.45356 0.240959 0.081373 0 255 255
-0.452801 0.242383 0.081373 0 255 255
-0.452037 0.243804 0.081373 0 255 255
-0.451269 0.245223 0.081373 0 255 255
-0.450497 0.24664 0.081373 0 255 255
-0.458368 0.252824 0.082938 0 255 255
-0.448938 0.249465 0.081373 0 255 255
-0.456815 0.255619 0.082938 0 255 255
-0.447406 0.252203 0.081373 0 255 255
-0.438023 0.24873 0.079808 0 255 255
-0.454386 0.259913 0.082938 0 255 255
-0.453567 0.26134 0.082938 0 255 255
-0.435659 0.252848 0.079808 0 255 255
-0.451916 0.264184 0.082938 0 255 255
-0.451084 0.265603 0.082938 0 255 255
-0.441752 0.26198 0.081373 0 255 255
-0.449406 0.268432 0.082938 0 255 255
-0.448608 0.269764 0.082938 0 255 255
