ply
format ascii 1.0
element vertex 1305
property float x
property float y
property float z
property uchar red
property uchar green
property uchar blue
end_header
9.25361 -2.3742 2.5585 0 255 255
9.15262 -2.37896 2.53263 0 255 255
9.28522 -2.44459 2.57144 0 255 255
9.23082 -2.46131 2.5585 0 255 255
9.26035 -2.50037 2.56885 0 255 255
9.31767 -2.54728 2.58696 0 255 255
9.30031 -2.57396 2.58437 0 255 255
9.15266 -2.56408 2.54557 0 255 255
9.1534 -2.59705 2.54816 0 255 255
8.93165 -2.56449 2.48866 0 255 255
8.87717 -2.57906 2.47572 0 255 255
8.83301 -2.62652 2.46796 0 255 255
9.27798 -2.79059 2.59472 0 255 255
8.78861 -2.67354 2.4602 0 255 255
9.32489 -2.86871 2.61283 0 255 255
9.35273 -2.90947 2.62318 0 255 255
9.27904 -2.91855 2.60507 0 255 255
9.34843 -3.20251 2.64646 0 255 255
9.38023 -3.34569 2.66716 0 255 255
9.38726 -3.38332 2.67233 0 255 255
9.33085 -3.5631 2.67492 0 255 255
9.31059 -3.58893 2.67233 0 255 255
7.99588 -3.2875 2.31533 0 255 255
9.18369 -3.87745 2.66974 0 255 255
9.15027 -3.93127 2.66716 0 255 255
9.13719 -3.96159 2.66716 0 255 255
9.06968 -4.13712 2.66974 0 255 255
7.674 -3.58823 2.26876 0 255 255
8.96209 -4.3653 2.66974 0 255 255
7.54365 -3.70376 2.25065 0 255 255
8.93449 -4.42152 2.66974 0 255 255
7.4943 -3.73815 2.24289 0 255 255
7.36258 -3.84743 2.22479 0 255 255
8.79491 -4.63115 2.66198 0 255 255
8.76482 -4.68784 2.66198 0 255 255
9.60225 -5.37092 2.94655 0 255 255
9.47497 -5.38034 2.91809 0 255 255
7.14382 -4.08634 2.20409 0 255 255
9.37402 -5.40119 2.89739 0 255 255
9.0977 -5.39538 2.83272 0 255 255
7.02407 -4.1955 2.19115 0 255 255
6.80347 -4.42161 2.17305 0 255 255
7.76757 -5.08295 2.48607 0 255 255
7.6541 -5.0796 2.4602 0 255 255
6.72249 -4.49183 2.16529 0 255 255
6.67814 -4.52314 2.16011 0 255 255
6.56802 -4.63151 2.15235 0 255 255
6.54678 -4.71127 2.16011 0 255 255
6.50848 -4.71482 2.15235 0 255 255
6.50924 -4.74662 2.15752 0 255 255
6.45647 -4.80199 2.15494 0 255 255
6.48775 -4.85699 2.17046 0 255 255
6.47246 -4.87735 2.17046 0 255 255
6.54787 -5.03344 2.21185 0 255 255
6.40215 -4.9535 2.16787 0 255 255
6.34696 -5.03957 2.17046 0 255 255
6.26076 -5.06987 2.15752 0 255 255
6.16056 -5.0856 2.13942 0 255 255
6.10625 -5.10562 2.13165 0 255 255
6.03756 -5.08229 2.11355 0 255 255
6.08052 -5.15119 2.13424 0 255 255
5.82282 -5.12449 2.07733 0 255 255
5.97079 -5.32165 2.142 0 255 255
5.66552 -5.08338 2.03852 0 255 255
5.64235 -5.09468 2.03594 0 255 255
5.50879 -5.06914 2.00489 0 255 255
6.92441 -6.45486 2.53522 0 255 255
6.69741 -6.48345 2.49642 0 255 255
6.49113 -6.52748 2.46537 0 255 255
6.40938 -6.52679 2.44985 0 255 255
6.43601 -7.07309 2.56109 0 255 255
6.44955 -7.17805 2.58437 0 255 255
6.46843 -7.29069 2.61024 0 255 255
6.47849 -7.39771 2.63352 0 255 255
6.48874 -7.50403 2.65681 0 255 255
5.33201 -6.2056 2.19115 0 255 255
5.29291 -6.23898 2.19115 0 255 255
6.3215 -7.79527 2.68785 0 255 255
6.27843 -7.84237 2.69044 0 255 255
5.12929 -6.4484 2.20668 0 255 255
6.22903 -7.88167 2.69044 0 255 255
6.17345 -7.91303 2.68785 0 255 255
4.97383 -6.67777 2.22996 0 255 255
5.79655 -8.20497 2.69044 0 255 255
4.86508 -6.93517 2.26876 0 255 255
5.73792 -8.23431 2.68785 0 255 255
5.67513 -8.25428 2.68268 0 255 255
5.45377 -8.4367 2.69044 0 255 255
5.31909 -8.52225 2.69044 0 255 255
5.2908 -8.53985 2.69044 0 255 255
5.24208 -8.58116 2.69303 0 255 255
4.4987 -7.41655 2.32309 0 255 255
5.05211 -8.69436 2.69303 0 255 255
4.93619 -8.74961 2.69044 0 255 255
4.91339 -8.7735 2.69303 0 255 255
4.65289 -8.89259 2.68785 0 255 255
4.59094 -8.91387 2.68526 0 255 255
4.1032 -8.21896 2.4602 0 255 255
4.09879 -8.27509 2.47313 0 255 255
4.09408 -8.33127 2.48607 0 255 255
4.41856 -9.14024 2.71889 0 255 255
3.96351 -8.46889 2.50418 0 255 255
4.1122 -8.93234 2.63352 0 255 255
4.13068 -9.05138 2.66457 0 255 255
4.12214 -9.10832 2.6775 0 255 255
4.11328 -9.16529 2.69044 0 255 255
3.85667 -8.66631 2.54039 0 255 255
4.00881 -9.0849 2.65939 0 255 255
3.92701 -9.05742 2.64387 0 255 255
3.81843 -8.88335 2.58955 0 255 255
3.90789 -9.17078 2.66974 0 255 255
3.89785 -9.22751 2.68268 0 255 255
3.88004 -9.26644 2.69044 0 255 255
3.73242 -8.99309 2.60766 0 255 255
3.75032 -9.12156 2.64129 0 255 255
3.75081 -9.20486 2.66198 0 255 255
3.73272 -9.24346 2.66974 0 255 255
3.71085 -9.27308 2.67492 0 255 255
3.68882 -9.30265 2.68009 0 255 255
3.71256 -9.44905 2.71889 0 255 255
3.75644 -9.6497 2.77322 0 255 255
3.74001 -9.69751 2.78357 0 255 255
3.62169 -9.48426 2.71889 0 255 255
3.74224 -9.89312 2.83272 0 255 255
3.73487 -9.96814 2.85083 0 255 255
3.54719 -9.65657 2.75511 0 255 255
3.56967 -9.81291 2.7965 0 255 255
3.52573 -9.78772 2.78615 0 255 255
3.50794 -9.83514 2.7965 0 255 255
3.50597 -9.92809 2.81979 0 255 255
3.47158 -9.92994 2.8172 0 255 255
3.39442 -9.81359 2.78098 0 255 255
3.38235 -9.87904 2.7965 0 255 255
3.3451 -9.87132 2.79133 0 255 255
3.21271 -9.57955 2.70596 0 255 255
3.17956 -9.58043 2.70337 0 255 255
3.15547 -9.60873 2.70855 0 255 255
3.12228 -9.60941 2.70596 0 255 255
3.09504 -9.62836 2.70855 0 255 255
3.06477 -9.63804 2.70855 0 255 255
3.03448 -9.64762 2.70855 0 255 255
2.9996 -9.64841 2.70596 0 255 255
2.97212 -9.66702 2.70855 0 255 255
2.94173 -9.67631 2.70855 0 255 255
2.9141 -9.69475 2.71113 0 255 255
2.88193 -9.70436 2.71113 0 255 255
2.85143 -9.71337 2.71113 0 255 255
2.8209 -9.72228 2.71113 0 255 255
2.79034 -9.73109 2.71113 0 255 255
2.75806 -9.74029 2.71113 0 255 255
2.72484 -9.7396 2.70855 0 255 255
2.69681 -9.75743 2.71113 0 255 255
2.66614 -9.76585 2.71113 0 255 255
2.63545 -9.77418 2.71113 0 255 255
2.60473 -9.78241 2.71113 0 255 255
2.57398 -9.79055 2.71113 0 255 255
2.54564 -9.80793 2.71372 0 255 255
2.5131 -9.81632 2.71372 0 255 255
2.48225 -9.82417 2.71372 0 255 255
2.45137 -9.83192 2.71372 0 255 255
2.42047 -9.83957 2.71372 0 255 255
2.38955 -9.84713 2.71372 0 255 255
2.36085 -9.86398 2.71631 0 255 255
2.32763 -9.86195 2.71372 0 255 255
2.29883 -9.87862 2.71631 0 255 255
2.26778 -9.88579 2.71631 0 255 255
2.23671 -9.89287 2.71631 0 255 255
2.2018 -9.8908 2.71372 0 255 255
2.17278 -9.9071 2.71631 0 255 255
2.14165 -9.91388 2.71631 0 255 255
2.11049 -9.92056 2.71631 0 255 255
2.07931 -9.92714 2.71631 0 255 255
2.04812 -9.93362 2.71631 0 255 255
2.01708 -9.94983 2.71889 0 255 255
1.98392 -9.94664 2.71631 0 255 255
1.95453 -9.96231 2.71889 0 255 255
1.92322 -9.9684 2.71889 0 255 255
1.89015 -9.97472 2.71889 0 255 255
1.85881 -9.98061 2.71889 0 255 255
1.82744 -9.9864 2.71889 0 255 255
1.79777 -10.0016 2.72148 0 255 255
1.76466 -9.99768 2.71889 0 255 255
1.73324 -10.0032 2.71889 0 255 255
1.70181 -10.0086 2.71889 0 255 255
1.67036 -10.0139 2.71889 0 255 255
1.63714 -10.0194 2.71889 0 255 255
1.60719 -10.034 2.72148 0 255 255
1.57565 -10.039 2.72148 0 255 255
1.54264 -10.0343 2.71889 0 255 255
1.51111 -10.0391 2.71889 0 255 255
1.48097 -10.0534 2.72148 0 255 255
1.44762 -10.0582 2.72148 0 255 255
1.41467 -10.0532 2.71889 0 255 255
1.3844 -10.0671 2.72148 0 255 255
1.35276 -10.0714 2.72148 0 255 255
1.32237 -10.0852 2.72407 0 255 255
1.29068 -10.0893 2.72407 0 255 255
1.25602 -10.084 2.72148 0 255 255
1.22434 -10.0879 2.72148 0 255 255
1.19377 -10.1012 2.72407 0 255 255
1.16203 -10.1049 2.72407 0 255 255
1.13028 -10.1086 2.72407 0 255 255
1.09748 -10.1024 2.72148 0 255 255
1.06498 -10.1156 2.72407 0 255 255
1.03222 -10.1093 2.72148 0 255 255
1.0014 -10.1221 2.72407 0 255 255
0.746766 -7.79825 2.09802 0 255 255
0.423298 -4.73363 1.27278 0 255 255
0.306527 -3.56088 0.957175 0 255 255
0.295339 -3.56182 0.957175 0 255 255
0.285684 -3.58199 0.962349 0 255 255
0.274429 -3.58287 0.962349 0 255 255
0.262464 -3.57408 0.959762 0 255 255
0.251912 -3.58453 0.962349 0 255 255
0.240669 -3.59498 0.964936 0 255 255
0.228759 -3.58608 0.962349 0 255 255
0.218076 -3.59642 0.964936 0 255 255
0.206777 -3.59709 0.964936 0 255 255
0.194951 -3.58807 0.962349 0 255 255
0.183678 -3.58867 0.962349 0 255 255
0.172239 -3.59891 0.964936 0 255 255
0.160931 -3.59943 0.964936 0 255 255
0.149622 -3.59992 0.964936 0 255 255
0.138312 -3.60037 0.964936 0 255 255
0.127001 -3.60079 0.964936 0 255 255
0.115688 -3.60117 0.964936 0 255 255
0.104374 -3.60151 0.964936 0 255 255
0.093059 -3.60182 0.964936 0 255 255
0.080897 -3.59246 0.962349 0 255 255
0.069798 -3.60235 0.964936 0 255 255
0.05848 -3.60255 0.964936 0 255 255
0.047289 -3.61238 0.967523 0 255 255
0.035215 -3.60285 0.964936 0 255 255
0.02396 -3.61261 0.967523 0 255 255
0.012577 -3.603 0.964936 0 255 255
0.001257 -3.60303 0.964936 0 255 255
-0.010062 -3.60301 0.964936 0 255 255
-0.02138 -3.60296 0.964936 0 255 255
-0.033329 -3.60287 0.964936 0 255 255
-0.044647 -3.60275 0.964936 0 255 255
-0.056115 -3.61225 0.967523 0 255 255
-0.067463 -3.61206 0.967523 0 255 255
-0.07881 -3.61183 0.967523 0 255 255
-0.090157 -3.61156 0.967523 0 255 255
-0.101774 -3.62091 0.97011 0 255 255
-0.112847 -3.61092 0.967523 0 255 255
-0.12419 -3.61055 0.967523 0 255 255
-0.135895 -3.6198 0.97011 0 255 255
-0.147898 -3.61932 0.97011 0 255 255
-0.158843 -3.60919 0.967523 0 255 255
-0.170636 -3.61832 0.97011 0 255 255
-0.182002 -3.61777 0.97011 0 255 255
-0.193998 -3.61715 0.97011 0 255 255
-0.205908 -3.62616 0.972697 0 255 255
-0.216722 -3.61586 0.97011 0 255 255
-0.228688 -3.6248 0.972697 0 255 255
-0.240708 -3.62402 0.972697 0 255 255
-0.252091 -3.62325 0.972697 0 255 255
-0.263472 -3.62244 0.972697 0 255 255
-0.274851 -3.62159 0.972697 0 255 255
-0.286228 -3.62071 0.972697 0 255 255
-0.298393 -3.62942 0.975284 0 255 255
-0.309793 -3.62846 0.975284 0 255 255
-0.321191 -3.62747 0.975284 0 255 255
-0.333218 -3.62639 0.975284 0 255 255
-0.345523 -3.63494 0.977871 0 255 255
-0.356941 -3.63384 0.977871 0 255 255
-0.36933 -3.64231 0.980458 0 255 255
-0.379766 -3.63152 0.977871 0 255 255
-0.391173 -3.63031 0.977871 0 255 255
-0.404276 -3.63859 0.980458 0 255 255
-0.415705 -3.63731 0.980458 0 255 255
-0.427129 -3.63598 0.980458 0 255 255
-0.43855 -3.63462 0.980458 0 255 255
-0.45179 -3.64273 0.983045 0 255 255
-0.463232 -3.6413 0.983045 0 255 255
-0.475918 -3.6494 0.985632 0 255 255
-0.48738 -3.64789 0.985632 0 255 255
-0.500148 -3.65591 0.988219 0 255 255
-0.51163 -3.65432 0.988219 0 255 255
-0.523108 -3.65269 0.988219 0 255 255
-0.53598 -3.66059 0.990806 0 255 255
-0.548117 -3.65879 0.990806 0 255 255
-0.559608 -3.65705 0.990806 0 255 255
-0.571094 -3.65528 0.990806 0 255 255
-0.584095 -3.66301 0.993392 0 255 255
-0.5956 -3.66115 0.993392 0 255 255
-0.607099 -3.65926 0.993392 0 255 255
-0.620843 -3.66675 0.995979 0 255 255
-0.63236 -3.66478 0.995979 0 255 255
-0.643869 -3.66278 0.995979 0 255 255
-0.657076 -3.67025 0.998566 0 255 255
-0.668603 -3.66816 0.998566 0 255 255
-0.680123 -3.66605 0.998566 0 255 255
-0.691637 -3.66389 0.998566 0 255 255
-0.704966 -3.67119 1.00115 0 255 255
-0.717136 -3.66883 1.00115 0 255 255
-1.48556 -7.47523 2.04111 0 255 255
-1.51095 -7.47999 2.0437 0 255 255
-1.53638 -7.48467 2.04628 0 255 255
-1.55792 -7.47035 2.0437 0 255 255
-1.58538 -7.48432 2.04887 0 255 255
-1.60889 -7.4793 2.04887 0 255 255
-1.63444 -7.48365 2.05146 0 255 255
-1.65794 -7.47848 2.05146 0 255 255
-1.68355 -7.48266 2.05405 0 255 255
-1.70835 -7.47703 2.05405 0 255 255
-1.73401 -7.48104 2.05663 0 255 255
-1.75751 -7.47556 2.05663 0 255 255
-1.78322 -7.47939 2.05922 0 255 255
-1.80898 -7.48314 2.06181 0 255 255
-1.83478 -7.48681 2.06439 0 255 255
-1.86193 -7.49006 2.06698 0 255 255
-1.89017 -7.5029 2.07215 0 255 255
-1.91373 -7.49693 2.07215 0 255 255
-1.93727 -7.49088 2.07215 0 255 255
-2.66803 -10.0554 2.78615 0 255 255
-2.69885 -10.0372 2.78357 0 255 255
-2.73037 -10.0287 2.78357 0 255 255
-2.76443 -10.0294 2.78615 0 255 255
-2.79333 -10.0113 2.78357 0 255 255
-2.82739 -10.0118 2.78615 0 255 255
-2.86149 -10.0122 2.78874 0 255 255
-2.89293 -10.0031 2.78874 0 255 255
-2.92434 -9.99398 2.78874 0 255 255
-2.95746 -9.98422 2.78874 0 255 255
-2.99159 -9.98414 2.79133 0 255 255
-3.02294 -9.97469 2.79133 0 255 255
-3.05709 -9.97438 2.79392 0 255 255
-3.08841 -9.96473 2.79392 0 255 255
-3.12259 -9.96419 2.7965 0 255 255
-3.15269 -9.94457 2.79392 0 255 255
-3.18687 -9.94382 2.7965 0 255 255
-3.21809 -9.93376 2.7965 0 255 255
-3.25229 -9.93278 2.79909 0 255 255
-3.28218 -9.91277 2.7965 0 255 255
-3.3133 -9.90241 2.7965 0 255 255
-3.35058 -9.91025 2.80168 0 255 255
-3.37858 -9.89054 2.79909 0 255 255
-3.40963 -9.87987 2.79909 0 255 255
-3.44383 -9.87823 2.80168 0 255 255
-3.47336 -9.85765 2.79909 0 255 255
-3.50755 -9.85579 2.80168 0 255 255
-3.5385 -9.84472 2.80168 0 255 255
-3.5727 -9.84264 2.80426 0 255 255
-3.60693 -9.84043 2.80685 0 255 255
-3.63112 -9.81094 2.80168 0 255 255
-3.68898 -9.87187 2.82237 0 255 255
-3.72679 -9.8783 2.82755 0 255 255
-3.76297 -9.87492 2.83013 0 255 255
-3.78357 -9.836 2.82237 0 255 255
-3.78648 -9.75203 2.80168 0 255 255
-3.8312 -9.77606 2.81203 0 255 255
-3.85834 -9.75499 2.80944 0 255 255
-3.89254 -9.75179 2.81203 0 255 255
-3.92486 -9.73883 2.81203 0 255 255
-3.95908 -9.7354 2.81461 0 255 255
-3.99331 -9.73185 2.8172 0 255 255
-4.02017 -9.71034 2.81461 0 255 255
-4.05235 -9.69695 2.81461 0 255 255
-4.08654 -9.69307 2.8172 0 255 255
-4.12076 -9.68908 2.81979 0 255 255
-4.15117 -9.67608 2.81979 0 255 255
-4.18155 -9.66299 2.81979 0 255 255
-4.21189 -9.64981 2.81979 0 255 255
-4.24608 -9.64537 2.82237 0 255 255
-4.27635 -9.63198 2.82237 0 255 255
-4.31054 -9.62732 2.82496 0 255 255
-4.34474 -9.62253 2.82755 0 255 255
-4.37262 -9.59928 2.82496 0 255 255
-4.40276 -9.5855 2.82496 0 255 255
-4.44097 -9.58915 2.83013 0 255 255
-4.47107 -9.57515 2.83013 0 255 255
-4.49701 -9.55232 2.82755 0 255 255
-4.59104 -9.51821 2.83013 0 255 255
-4.6268 -9.51162 2.83272 0 255 255
-4.65666 -9.49704 2.83272 0 255 255
-4.68647 -9.48236 2.83272 0 255 255
-4.72055 -9.47624 2.83531 0 255 255
-4.75628 -9.46916 2.83789 0 255 255
-4.78164 -9.44555 2.83531 0 255 255
-0.130634 -0.155188 0.054326 0 255 255
-0.131121 -0.154777 0.054326 0 255 255
-0.137874 -0.161715 0.056913 0 255 255
-0.144671 -0.168612 0.0595 0 255 255
-0.138887 -0.160845 0.056913 0 255 255
-0.145728 -0.1677 0.0595 0 255 255
-0.146254 -0.167241 0.0595 0 255 255
-0.15316 -0.174032 0.062087 0 255 255
-0.153736 -0.173523 0.062087 0 255 255
-0.160709 -0.180249 0.064674 0 255 255
-0.161275 -0.179744 0.064674 0 255 255
-0.161839 -0.179236 0.064674 0 255 255
-0.162401 -0.178727 0.064674 0 255 255
-0.16948 -0.185344 0.067261 0 255 255
-0.170094 -0.184781 0.067261 0 255 255
-0.170673 -0.184246 0.067261 0 255 255
-0.177838 -0.190775 0.069848 0 255 255
-0.178436 -0.190215 0.069848 0 255 255
-0.179033 -0.189653 0.069848 0 255 255
-0.186281 -0.196093 0.072435 0 255 255
-0.186896 -0.195507 0.072435 0 255 255
-0.180813 -0.187958 0.069848 0 255 255
-0.181435 -0.187357 0.069848 0 255 255
-0.188764 -0.193704 0.072435 0 255 255
-0.175845 -0.179317 0.067261 0 255 255
-0.196762 -0.19939 0.075022 0 255 255
-0.190581 -0.191917 0.072435 0 255 255
-0.198011 -0.19815 0.075022 0 255 255
-0.198667 -0.197492 0.075022 0 255 255
-0.199287 -0.196867 0.075022 0 255 255
-0.199904 -0.19624 0.075022 0 255 255
-0.20052 -0.195611 0.075022 0 255 255
-0.194198 -0.188256 0.072435 0 255 255
-0.208702 -0.201049 0.077609 0 255 255
-0.202354 -0.193712 0.075022 0 255 255
-0.209961 -0.199733 0.077609 0 255 255
-0.210587 -0.199073 0.077609 0 255 255
-0.211211 -0.19841 0.077609 0 255 255
-0.211868 -0.197709 0.077609 0 255 255
-0.212488 -0.197042 0.077609 0 255 255
-0.206003 -0.189828 0.075022 0 255 255
-0.213722 -0.195703 0.077609 0 255 255
-0.214336 -0.195031 0.077609 0 255 255
-0.207783 -0.187878 0.075022 0 255 255
-0.208372 -0.187224 0.075022 0 255 255
-0.208959 -0.186569 0.075022 0 255 255
-0.209577 -0.185875 0.075022 0 255 255
-0.210159 -0.185215 0.075022 0 255 255
-0.21074 -0.184554 0.075022 0 255 255
-0.218606 -0.190232 0.077609 0 255 255
-0.204589 -0.176908 0.072435 0 255 255
-0.205144 -0.176265 0.072435 0 255 255
-0.213075 -0.181854 0.075022 0 255 255
-0.198911 -0.168688 0.069848 0 255 255
-0.206826 -0.174287 0.072435 0 255 255
-0.207373 -0.173637 0.072435 0 255 255
-0.207917 -0.172984 0.072435 0 255 255
-0.201015 -0.166176 0.069848 0 255 255
-0.216464 -0.177806 0.075022 0 255 255
-0.217022 -0.177125 0.075022 0 255 255
-0.217608 -0.176404 0.075022 0 255 255
-0.225684 -0.181779 0.077609 0 255 255
-0.218712 -0.175034 0.075022 0 255 255
-0.219261 -0.174346 0.075022 0 255 255
-0.212228 -0.167668 0.072435 0 255 255
-0.220352 -0.172964 0.075022 0 255 255
-0.220894 -0.172271 0.075022 0 255 255
-0.221434 -0.171577 0.075022 0 255 255
-0.206664 -0.159095 0.069848 0 255 255
-0.214835 -0.164314 0.072435 0 255 255
-0.215351 -0.163638 0.072435 0 255 255
-0.231282 -0.1746 0.077609 0 255 255
-0.216403 -0.162244 0.072435 0 255 255
-0.216911 -0.161563 0.072435 0 255 255
-0.232948 -0.172372 0.077609 0 255 255
-0.217922 -0.160197 0.072435 0 255 255
-0.218424 -0.159512 0.072435 0 255 255
-0.218925 -0.158825 0.072435 0 255 255
-0.227259 -0.163784 0.075022 0 255 255
-0.212064 -0.151823 0.069848 0 255 255
-0.228312 -0.162313 0.075022 0 255 255
-0.22093 -0.156022 0.072435 0 255 255
-0.229327 -0.160875 0.075022 0 255 255
-0.221906 -0.154631 0.072435 0 255 255
-0.222391 -0.153933 0.072435 0 255 255
-0.214914 -0.147761 0.069848 0 255 255
-0.215377 -0.147085 0.069848 0 255 255
-0.223832 -0.151831 0.072435 0 255 255
-0.224308 -0.151127 0.072435 0 255 255
-0.224781 -0.150421 0.072435 0 255 255
-0.225279 -0.149675 0.072435 0 255 255
-0.217686 -0.143646 0.069848 0 255 255
-0.218136 -0.142962 0.069848 0 255 255
-0.234775 -0.152815 0.075022 0 255 255
-0.235254 -0.152076 0.075022 0 255 255
-0.227602 -0.146118 0.072435 0 255 255
-0.236231 -0.150554 0.075022 0 255 255
-0.220379 -0.139479 0.069848 0 255 255
-0.237173 -0.149067 0.075022 0 255 255
-0.245834 -0.153435 0.077609 0 255 255
-0.246315 -0.152662 0.077609 0 255 255
-0.230341 -0.141762 0.072435 0 255 255
-0.247269 -0.151112 0.077609 0 255 255
-0.231227 -0.140312 0.072435 0 255 255
-0.248214 -0.149555 0.077609 0 255 255
-0.240393 -0.143815 0.075022 0 255 255
-0.240844 -0.143059 0.075022 0 255 255
-0.241292 -0.142302 0.075022 0 255 255
-0.250074 -0.146424 0.077609 0 255 255
-0.250532 -0.145638 0.077609 0 255 255
-0.250989 -0.14485 0.077609 0 255 255
-0.23468 -0.134457 0.072435 0 255 255
-0.243522 -0.138452 0.075022 0 255 255
-0.243955 -0.137686 0.075022 0 255 255
-0.261241 -0.146362 0.080196 0 255 255
-0.236374 -0.131456 0.072435 0 255 255
-0.253699 -0.140049 0.077609 0 255 255
-0.245666 -0.13461 0.075022 0 255 255
-0.237625 -0.129181 0.072435 0 255 255
-0.24653 -0.133021 0.075022 0 255 255
-0.246947 -0.132245 0.075022 0 255 255
-0.238832 -0.126936 0.072435 0 255 255
-0.256317 -0.135198 0.077609 0 255 255
-0.239624 -0.125432 0.072435 0 255 255
-0.257161 -0.133585 0.077609 0 255 255
-0.25758 -0.132776 0.077609 0 255 255
-0.249418 -0.127524 0.075022 0 255 255
-0.249818 -0.12674 0.075022 0 255 255
-0.258842 -0.130297 0.077609 0 255 255
-0.250609 -0.125167 0.075022 0 255 255
-0.251001 -0.12438 0.075022 0 255 255
-0.260059 -0.127852 0.077609 0 255 255
-0.251777 -0.1228 0.075022 0 255 255
-0.252162 -0.122008 0.075022 0 255 255
-0.252544 -0.121216 0.075022 0 255 255
-0.261645 -0.124574 0.077609 0 255 255
-0.262035 -0.123752 0.077609 0 255 255
-0.262423 -0.122928 0.077609 0 255 255
-0.254068 -0.117988 0.075022 0 255 255
-0.263211 -0.121231 0.077609 0 255 255
-0.263591 -0.120403 0.077609 0 255 255
-0.281565 -0.127546 0.082783 0 255 255
-0.273153 -0.122703 0.080196 0 255 255
-0.273537 -0.121844 0.080196 0 255 255
-0.273919 -0.120984 0.080196 0 255 255
-0.274298 -0.120123 0.080196 0 255 255
-0.274674 -0.119261 0.080196 0 255 255
-0.275047 -0.118397 0.080196 0 255 255
-0.275438 -0.117484 0.080196 0 255 255
-0.275806 -0.116618 0.080196 0 255 255
-0.276171 -0.115751 0.080196 0 255 255
-0.276533 -0.114883 0.080196 0 255 255
-0.276893 -0.114014 0.080196 0 255 255
-0.277249 -0.113143 0.080196 0 255 255
-0.268648 -0.10865 0.077609 0 255 255
-0.295887 -0.118586 0.08537 0 255 255
-0.278303 -0.110525 0.080196 0 255 255
-0.278649 -0.109651 0.080196 0 255 255
-0.278992 -0.108775 0.080196 0 255 255
-0.279333 -0.107898 0.080196 0 255 255
-0.288692 -0.110472 0.082783 0 255 255
-0.280005 -0.10614 0.080196 0 255 255
-0.280337 -0.10526 0.080196 0 255 255
-0.280666 -0.104379 0.080196 0 255 255
-0.281011 -0.103448 0.080196 0 255 255
-0.281335 -0.102564 0.080196 0 255 255
-0.281656 -0.10168 0.080196 0 255 255
-0.281974 -0.100795 0.080196 0 255 255
-0.291395 -0.103131 0.082783 0 255 255
-0.291717 -0.102215 0.082783 0 255 255
-0.292037 -0.101298 0.082783 0 255 255
-0.283218 -0.097243 0.080196 0 255 255
-0.283522 -0.096353 0.080196 0 255 255
-0.274668 -0.092383 0.077609 0 255 255
-0.274957 -0.091519 0.077609 0 255 255
-0.275243 -0.090655 0.077609 0 255 255
-0.284727 -0.092733 0.080196 0 255 255
-0.285017 -0.091838 0.080196 0 255 255
-0.294507 -0.093876 0.082783 0 255 255
-0.285588 -0.090045 0.080196 0 255 255
-0.295091 -0.092024 0.082783 0 255 255
-0.286148 -0.088249 0.080196 0 255 255
-0.295663 -0.090168 0.082783 0 255 255
-0.277449 -0.083661 0.077609 0 255 255
-0.277724 -0.082741 0.077609 0 255 255
-0.277983 -0.081868 0.077609 0 255 255
-0.296788 -0.086393 0.082783 0 255 255
-0.297058 -0.085461 0.082783 0 255 255
-0.288034 -0.081885 0.080196 0 255 255
-0.28829 -0.08098 0.080196 0 255 255
-0.29785 -0.082657 0.082783 0 255 255
-0.279477 -0.076613 0.077609 0 255 255
-0.279716 -0.075735 0.077609 0 255 255
-0.289284 -0.077351 0.080196 0 255 255
-0.289526 -0.076442 0.080196 0 255 255
-0.280417 -0.073096 0.077609 0 255 255
-0.290001 -0.074621 0.080196 0 255 255
-0.290234 -0.07371 0.080196 0 255 255
-0.271724 -0.068101 0.075022 0 255 255
-0.300068 -0.074204 0.082783 0 255 255
-0.281543 -0.068633 0.077609 0 255 255
-0.291149 -0.070006 0.080196 0 255 255
-0.291368 -0.069091 0.080196 0 255 255
-0.282177 -0.065976 0.077609 0 255 255
-0.291796 -0.067259 0.080196 0 255 255
-0.292006 -0.066342 0.080196 0 255 255
-0.292213 -0.065424 0.080196 0 255 255
-0.292417 -0.064506 0.080196 0 255 255
-0.283179 -0.061536 0.077609 0 255 255
-0.283371 -0.060646 0.077609 0 255 255
-0.28356 -0.059755 0.077609 0 255 255
-0.274288 -0.056902 0.075022 0 255 255
-0.28393 -0.057973 0.077609 0 255 255
-0.28411 -0.05708 0.077609 0 255 255
-0.274822 -0.054267 0.075022 0 255 255
-0.284473 -0.055244 0.077609 0 255 255
-0.294133 -0.056162 0.080196 0 255 255
-0.284815 -0.053456 0.077609 0 255 255
-0.275482 -0.050809 0.075022 0 255 255
-0.285145 -0.051665 0.077609 0 255 255
-0.275796 -0.049077 0.075022 0 255 255
-0.275948 -0.04821 0.075022 0 255 255
-0.285619 -0.048976 0.077609 0 255 255
-0.295297 -0.049681 0.080196 0 255 255
-0.285921 -0.04718 0.077609 0 255 255
-0.295604 -0.047824 0.080196 0 255 255
-0.28622 -0.045333 0.077609 0 255 255
-0.286361 -0.044433 0.077609 0 255 255
-0.286499 -0.043533 0.077609 0 255 255
-0.286634 -0.042633 0.077609 0 255 255
-0.286767 -0.041733 0.077609 0 255 255
-0.29646 -0.042192 0.080196 0 255 255
-0.296591 -0.041261 0.080196 0 255 255
-0.296719 -0.040329 0.080196 0 255 255
-0.30642 -0.040667 0.082783 0 255 255
-0.287387 -0.037223 0.077609 0 255 255
-0.306669 -0.038741 0.082783 0 255 255
-0.297202 -0.036597 0.080196 0 255 255
-0.297316 -0.035663 0.080196 0 255 255
-0.297427 -0.034729 0.080196 0 255 255
-0.29754 -0.033743 0.080196 0 255 255
-0.307246 -0.033866 0.082783 0 255 255
-0.307351 -0.032901 0.082783 0 255 255
-0.297845 -0.030937 0.080196 0 255 255
-0.307552 -0.030969 0.082783 0 255 255
-0.307647 -0.030002 0.082783 0 255 255
-0.317357 -0.029943 0.08537 0 255 255
-0.30783 -0.028069 0.082783 0 255 255
-0.307916 -0.027102 0.082783 0 255 255
-0.298375 -0.025318 0.080196 0 255 255
-0.317708 -0.025953 0.08537 0 255 255
-0.308158 -0.024198 0.082783 0 255 255
-0.2986 -0.022504 0.080196 0 255 255
-0.29867 -0.021566 0.080196 0 255 255
-0.308373 -0.021293 0.082783 0 255 255
-0.308438 -0.020324 0.082783 0 255 255
-0.289219 -0.018145 0.077609 0 255 255
-0.289275 -0.017237 0.077609 0 255 255
-0.298972 -0.016872 0.080196 0 255 255
-0.299023 -0.015933 0.080196 0 255 255
-0.308719 -0.015477 0.082783 0 255 255
-0.289468 -0.0136 0.077609 0 255 255
-0.28951 -0.012691 0.077609 0 255 255
-0.289548 -0.011781 0.077609 0 255 255
-0.299238 -0.011182 0.080196 0 255 255
-0.299272 -0.010242 0.080196 0 255 255
-0.289648 -0.009001 0.077609 0 255 255
-0.289675 -0.008091 0.077609 0 255 255
-0.299355 -0.007421 0.080196 0 255 255
-0.28972 -0.006271 0.077609 0 255 255
-0.270422 -0.005004 0.072435 0 255 255
-0.289753 -0.004451 0.077609 0 255 255
-0.289766 -0.00354 0.077609 0 255 255
-0.280116 -0.002542 0.075022 0 255 255
-0.280123 -0.001662 0.075022 0 255 255
-0.270467 -0.000755 0.072435 0 255 255
-0.280128 9.8e-05 0.075022 0 255 255
-0.289786 0.001012 0.077609 0 255 255
-0.270463 0.001794 0.072435 0 255 255
-0.280115 0.002738 0.075022 0 255 255
-0.280105 0.003618 0.075022 0 255 255
-0.280092 0.004498 0.075022 0 255 255
-0.289734 0.005563 0.077609 0 255 255
-0.280058 0.006258 0.075022 0 255 255
-0.289694 0.007384 0.077609 0 255 255
-0.270358 0.007741 0.072435 0 255 255
-0.279985 0.008946 0.075022 0 255 255
-0.279956 0.009825 0.075022 0 255 255
-0.279923 0.010705 0.075022 0 255 255
-0.270237 0.011185 0.072435 0 255 255
-0.270201 0.012033 0.072435 0 255 255
-0.27981 0.013342 0.075022 0 255 255
-0.27012 0.013731 0.072435 0 255 255
-0.279721 0.0151 0.075022 0 255 255
-0.279672 0.015979 0.075022 0 255 255
-0.27962 0.016857 0.075022 0 255 255
-0.289206 0.018347 0.077609 0 255 255
-0.279509 0.018614 0.075022 0 255 255
-0.269813 0.01882 0.072435 0 255 255
-0.28902 0.021072 0.077609 0 255 255
-0.279321 0.021247 0.075022 0 255 255
-0.279253 0.022125 0.075022 0 255 255
-0.288809 0.023795 0.077609 0 255 255
-0.288733 0.024702 0.077609 0 255 255
-0.26941 0.023902 0.072435 0 255 255
-0.298191 0.0274 0.080196 0 255 255
-0.298103 0.028337 0.080196 0 255 255
-0.298013 0.029273 0.080196 0 255 255
-0.288309 0.029235 0.077609 0 255 255
-0.278609 0.029135 0.075022 0 255 255
-0.297724 0.03208 0.080196 0 255 255
-0.297622 0.033015 0.080196 0 255 255
-0.297511 0.034002 0.080196 0 255 255
-0.278215 0.032683 0.075022 0 255 255
-0.278111 0.033557 0.075022 0 255 255
-0.297177 0.036805 0.080196 0 255 255
-0.29706 0.037738 0.080196 0 255 255
-0.29694 0.038671 0.080196 0 255 255
-0.296817 0.039604 0.080196 0 255 255
-0.296691 0.040536 0.080196 0 255 255
-0.306129 0.042806 0.082783 0 255 255
-0.305993 0.043767 0.082783 0 255 255
-0.296296 0.04333 0.080196 0 255 255
-0.305712 0.045689 0.082783 0 255 255
-0.305566 0.046649 0.082783 0 255 255
-0.305418 0.047609 0.082783 0 255 255
-0.314807 0.050086 0.08537 0 255 255
-0.314648 0.051075 0.08537 0 255 255
-0.304956 0.050485 0.082783 0 255 255
-0.304796 0.051443 0.082783 0 255 255
-0.304633 0.0524 0.082783 0 255 255
-0.304467 0.053357 0.082783 0 255 255
-0.323316 0.057708 0.087957 0 255 255
-0.313629 0.056996 0.08537 0 255 255
-0.322947 0.059738 0.087957 0 255 255
-0.313265 0.058966 0.08537 0 255 255
-0.313078 0.059949 0.08537 0 255 255
-0.312889 0.060933 0.08537 0 255 255
-0.322171 0.063792 0.087957 0 255 255
-0.312499 0.062897 0.08537 0 255 255
-0.321764 0.065815 0.087957 0 255 255
-0.312098 0.06486 0.08537 0 255 255
-0.311893 0.06584 0.08537 0 255 255
-0.311684 0.066819 0.08537 0 255 255
-0.311473 0.067798 0.08537 0 255 255
-0.311258 0.068776 0.08537 0 255 255
-0.320454 0.071924 0.087957 0 255 255
-0.310808 0.070785 0.08537 0 255 255
-0.310584 0.071761 0.08537 0 255 255
-0.300952 0.070532 0.082783 0 255 255
-0.300729 0.071477 0.082783 0 255 255
-0.309894 0.074685 0.08537 0 255 255
-0.290891 0.071073 0.080196 0 255 255
-0.300042 0.074308 0.082783 0 255 255
-0.299807 0.075251 0.082783 0 255 255
-0.308931 0.078573 0.08537 0 255 255
-0.299328 0.077133 0.082783 0 255 255
-0.299085 0.078073 0.082783 0 255 255
-0.308177 0.081481 0.08537 0 255 255
-0.307919 0.082449 0.08537 0 255 255
-0.298336 0.080888 0.082783 0 255 255
-0.29808 0.081825 0.082783 0 255 255
-0.297821 0.082761 0.082783 0 255 255
-0.316157 0.088927 0.087957 0 255 255
-0.297296 0.084631 0.082783 0 255 255
-0.297028 0.085564 0.082783 0 255 255
-0.296758 0.086497 0.082783 0 255 255
-0.296485 0.087429 0.082783 0 255 255
-0.286952 0.085599 0.080196 0 255 255
-0.277434 0.083709 0.077609 0 255 255
-0.286409 0.0874 0.080196 0 255 255
-0.295363 0.091148 0.082783 0 255 255
-0.276633 0.08632 0.077609 0 255 255
-0.27636 0.087189 0.077609 0 255 255
-0.276085 0.088057 0.077609 0 255 255
-0.275807 0.088924 0.077609 0 255 255
-0.28471 0.092783 0.080196 0 255 255
-0.275243 0.090655 0.077609 0 255 255
-0.274957 0.091519 0.077609 0 255 255
-0.292979 0.098541 0.082783 0 255 255
-0.283522 0.096353 0.080196 0 255 255
-0.274082 0.094106 0.077609 0 255 255
-0.282911 0.098133 0.080196 0 255 255
-0.282601 0.099021 0.080196 0 255 255
-0.273183 0.096685 0.077609 0 255 255
-0.281974 0.100795 0.080196 0 255 255
-0.290741 0.10496 0.082783 0 255 255
-0.272259 0.099256 0.077609 0 255 255
-0.281011 0.103448 0.080196 0 255 255
-0.280685 0.10433 0.080196 0 255 255
-0.280356 0.105211 0.080196 0 255 255
-0.280024 0.106091 0.080196 0 255 255
-0.288711 0.110421 0.082783 0 255 255
-0.279352 0.107849 0.080196 0 255 255
-0.270011 0.105219 0.077609 0 255 255
-0.278668 0.109602 0.080196 0 255 255
-0.278323 0.110477 0.080196 0 255 255
-0.286941 0.114943 0.082783 0 255 255
-0.286579 0.115843 0.082783 0 255 255
-0.277269 0.113095 0.080196 0 255 255
-0.276912 0.113966 0.080196 0 255 255
-0.267632 0.111131 0.077609 0 255 255
-0.2851 0.119435 0.082783 0 255 255
-0.284724 0.120331 0.082783 0 255 255
-0.275458 0.117436 0.080196 0 255 255
-0.275088 0.118301 0.080196 0 255 255
-0.292439 0.126853 0.08537 0 255 255
-0.292039 0.127771 0.08537 0 255 255
-0.273961 0.120888 0.080196 0 255 255
-0.29123 0.129603 0.08537 0 255 255
-0.282009 0.126562 0.082783 0 255 255
-0.28161 0.127448 0.082783 0 255 255
-0.281208 0.128332 0.082783 0 255 255
-0.272028 0.125177 0.080196 0 255 255
-0.280396 0.130096 0.082783 0 255 255
-0.271237 0.126883 0.080196 0 255 255
-0.28831 0.135976 0.08537 0 255 255
-0.26171 0.124437 0.077609 0 255 255
-0.278739 0.133609 0.082783 0 255 255
-0.278318 0.134484 0.082783 0 255 255
-0.277894 0.135358 0.082783 0 255 255
-0.277468 0.13623 0.082783 0 255 255
-0.277038 0.137101 0.082783 0 255 255
-0.276606 0.137971 0.082783 0 255 255
-0.284802 0.143178 0.08537 0 255 255
-0.275734 0.139706 0.082783 0 255 255
-0.266691 0.136179 0.080196 0 255 255
-0.266262 0.137016 0.080196 0 255 255
-0.274405 0.142299 0.082783 0 255 255
-0.273957 0.14316 0.082783 0 255 255
-0.264958 0.13952 0.080196 0 255 255
-0.281585 0.149406 0.08537 0 255 255
-0.281114 0.15029 0.08537 0 255 255
-0.255127 0.137429 0.077609 0 255 255
-0.271674 0.147446 0.082783 0 255 255
-0.262734 0.143664 0.080196 0 255 255
-0.262282 0.144489 0.080196 0 255 255
-0.25338 0.140625 0.077609 0 255 255
-0.261369 0.146134 0.080196 0 255 255
-0.260908 0.146954 0.080196 0 255 255
-0.268847 0.15254 0.082783 0 255 255
-0.251593 0.143797 0.077609 0 255 255
-0.25114 0.144587 0.077609 0 255 255
-0.259041 0.150221 0.080196 0 255 255
-0.258568 0.151034 0.080196 0 255 255
-0.249766 0.146948 0.077609 0 255 255
-0.257614 0.152656 0.080196 0 255 255
-0.257133 0.153464 0.080196 0 255 255
-0.24837 0.149295 0.077609 0 255 255
-0.256164 0.155077 0.080196 0 255 255
-0.255675 0.155881 0.080196 0 255 255
-0.246952 0.151629 0.077609 0 255 255
-0.246475 0.152404 0.077609 0 255 255
-0.245995 0.153178 0.077609 0 255 255
-0.253696 0.159082 0.080196 0 255 255
-0.253195 0.159878 0.080196 0 255 255
-0.252692 0.160672 0.080196 0 255 255
-0.244051 0.156257 0.077609 0 255 255
-0.251677 0.162257 0.080196 0 255 255
-0.243064 0.157787 0.077609 0 255 255
-0.234481 0.153265 0.075022 0 255 255
-0.242068 0.159311 0.077609 0 255 255
-0.249618 0.165407 0.080196 0 255 255
-0.249097 0.16619 0.080196 0 255 255
-0.248574 0.166972 0.080196 0 255 255
-0.248048 0.167752 0.080196 0 255 255
-0.239535 0.163094 0.077609 0 255 255
-0.239022 0.163846 0.077609 0 255 255
-0.246486 0.170039 0.080196 0 255 255
-0.238017 0.165303 0.077609 0 255 255
-0.237496 0.16605 0.077609 0 255 255
-0.229074 0.161235 0.075022 0 255 255
-0.24433 0.173123 0.080196 0 255 255
-0.228057 0.162671 0.075022 0 255 255
-0.235391 0.169021 0.077609 0 255 255
-0.234859 0.16976 0.077609 0 255 255
-0.234324 0.170497 0.077609 0 255 255
-0.225994 0.165524 0.075022 0 255 255
-0.241023 0.177698 0.080196 0 255 255
-0.232707 0.172697 0.077609 0 255 255
-0.232163 0.173428 0.077609 0 255 255
-0.223897 0.168351 0.075022 0 255 255
-0.223367 0.169053 0.075022 0 255 255
-0.215151 0.163901 0.072435 0 255 255
-0.2223 0.170454 0.075022 0 255 255
-0.221763 0.171151 0.075022 0 255 255
-0.221225 0.171847 0.075022 0 255 255
-0.205464 0.160642 0.069848 0 255 255
-0.21255 0.16726 0.072435 0 255 255
-0.212023 0.167927 0.072435 0 255 255
-0.219048 0.174613 0.075022 0 255 255
-0.203429 0.163211 0.069848 0 255 255
-0.210431 0.169918 0.072435 0 255 255
-0.209896 0.170578 0.072435 0 255 255
-0.216836 0.177352 0.075022 0 255 255
-0.223736 0.184171 0.077609 0 255 255
-0.208279 0.172549 0.072435 0 255 255
-0.207736 0.173202 0.072435 0 255 255
-0.214591 0.180063 0.075022 0 255 255
-0.214024 0.180736 0.075022 0 255 255
-0.206094 0.175152 0.072435 0 255 255
-0.198202 0.16952 0.069848 0 255 255
-0.20499 0.176444 0.072435 0 255 255
-0.211736 0.183411 0.075022 0 255 255
-0.211158 0.184076 0.075022 0 255 255
-0.210579 0.184738 0.075022 0 255 255
-0.209998 0.185399 0.075022 0 255 255
-0.202193 0.179642 0.072435 0 255 255
-0.208829 0.186714 0.075022 0 255 255
-0.215422 0.193831 0.077609 0 255 255
-0.200491 0.181539 0.072435 0 255 255
-0.20706 0.188674 0.075022 0 255 255
-0.206466 0.189324 0.075022 0 255 255
-0.198771 0.183421 0.072435 0 255 255
-0.205272 0.190617 0.075022 0 255 255
-0.197615 0.184666 0.072435 0 255 255
-0.197066 0.185252 0.072435 0 255 255
-0.182449 0.172593 0.067261 0 255 255
-0.188902 0.179826 0.069848 0 255 255
-0.195311 0.187101 0.072435 0 255 255
-0.201677 0.194417 0.075022 0 255 255
-0.180265 0.174872 0.067261 0 255 255
-0.193539 0.188933 0.072435 0 255 255
-0.192945 0.18954 0.072435 0 255 255
-0.185479 0.183354 0.069848 0 255 255
-0.19175 0.190749 0.072435 0 255 255
-0.19115 0.19135 0.072435 0 255 255
-0.197353 0.198805 0.075022 0 255 255
-0.189944 0.192547 0.072435 0 255 255
-0.1961 0.200041 0.075022 0 255 255
-0.18873 0.193737 0.072435 0 255 255
-0.188121 0.194329 0.072435 0 255 255
-0.194206 0.201881 0.075022 0 255 255
-0.186896 0.195507 0.072435 0 255 255
-0.192934 0.203097 0.075022 0 255 255
-0.192295 0.203702 0.075022 0 255 255
-0.191654 0.204305 0.075022 0 255 255
-0.191011 0.204906 0.075022 0 255 255
-0.170673 0.184246 0.067261 0 255 255
-0.176636 0.191888 0.069848 0 255 255
-0.176032 0.192442 0.069848 0 255 255
-0.175427 0.192994 0.069848 0 255 255
-0.174819 0.193544 0.069848 0 255 255
-0.180663 0.201281 0.072435 0 255 255
-0.186459 0.209057 0.075022 0 255 255
-0.185801 0.209641 0.075022 0 255 255
-0.178758 0.202975 0.072435 0 255 255
-0.184481 0.210805 0.075022 0 255 255
-0.177479 0.204094 0.072435 0 255 255
-0.189468 0.219269 0.077609 0 255 255
-0.176193 0.205205 0.072435 0 255 255
-0.188087 0.220455 0.077609 0 255 255
-0.174936 0.206278 0.072435 0 255 255
-0.180512 0.214213 0.075022 0 255 255
-0.173637 0.207373 0.072435 0 255 255
-0.179162 0.215343 0.075022 0 255 255
-0.178485 0.215905 0.075022 0 255 255
-0.171675 0.209 0.072435 0 255 255
-0.183233 0.224505 0.077609 0 255 255
-0.182526 0.22508 0.077609 0 255 255
-0.175758 0.21813 0.075022 0 255 255
-0.175072 0.218682 0.075022 0 255 255
-0.168371 0.211671 0.072435 0 255 255
-0.173694 0.219777 0.075022 0 255 255
-0.173003 0.220322 0.075022 0 255 255
-0.17231 0.220864 0.075022 0 255 255
-0.177533 0.229039 0.077609 0 255 255
-0.176813 0.229596 0.077609 0 255 255
-0.170221 0.222478 0.075022 0 255 255
-0.169521 0.223012 0.075022 0 255 255
-0.174641 0.231252 0.077609 0 255 255
-0.168116 0.224073 0.075022 0 255 255
-0.167412 0.2246 0.075022 0 255 255
-0.166705 0.225125 0.075022 0 255 255
-0.160273 0.217866 0.072435 0 255 255
-0.159588 0.218369 0.072435 0 255 255
-0.153226 0.211052 0.069848 0 255 255
-0.158213 0.219367 0.072435 0 255 255
-0.157561 0.219836 0.072435 0 255 255
-0.15687 0.22033 0.072435 0 255 255
-0.156177 0.220821 0.072435 0 255 255
-0.161035 0.229215 0.075022 0 255 255
-0.154786 0.221798 0.072435 0 255 255
-0.154088 0.222283 0.072435 0 255 255
-0.15339 0.222766 0.072435 0 255 255
-0.152689 0.223247 0.072435 0 255 255
-0.146559 0.215736 0.069848 0 255 255
-0.14588 0.216195 0.069848 0 255 255
-0.1452 0.216652 0.069848 0 255 255
-0.144519 0.217107 0.069848 0 255 255
-0.143836 0.21756 0.069848 0 255 255
-0.13785 0.209937 0.067261 0 255 255
-0.142466 0.21846 0.069848 0 255 255
-0.136528 0.210798 0.067261 0 255 255
-0.135865 0.211226 0.067261 0 255 255
-0.135201 0.211652 0.067261 0 255 255
-0.134535 0.212076 0.067261 0 255 255
-0.12872 0.204324 0.064674 0 255 255
-0.122954 0.196539 0.062087 0 255 255
-0.127434 0.205129 0.064674 0 255 255
-0.126788 0.205529 0.064674 0 255 255
-0.121096 0.197689 0.062087 0 255 255
-0.110435 0.181563 0.056913 0 255 255
-0.114679 1.97689 0.530327 0 255 255
-0.108997 1.98689 0.532914 0 255 255
-0.104103 2.00649 0.538088 0 255 255
-0.143486 2.02152 0.468273 0 255 255
-0.136475 2.01224 0.466022 0 255 255
-0.130152 2.01266 0.466022 0 255 255
-0.124427 2.02278 0.468273 0 255 255
3.0604 26.7364 6.21813 0 255 255
3.1387 26.6782 6.20687 0 255 255
3.2295 26.7263 6.22038 0 255 255
3.32065 26.774 6.23389 0 255 255
3.39368 26.6765 6.21362 0 255 255
3.49006 26.7623 6.23614 0 255 255
3.53724 26.5104 6.17985 0 255 255
3.60468 26.3833 6.15284 0 255 255
3.70374 26.4876 6.17985 0 255 255
3.78693 26.4759 6.17985 0 255 255
3.87432 26.4928 6.18661 0 255 255
3.51429 23.0197 5.38064 0 255 255
3.57459 22.9316 5.36263 0 255 255
3.66192 23.0165 5.38514 0 255 255
1.40709 2.12992 0.589844 0 255 255
1.41378 2.12549 0.589844 0 255 255
1.42045 2.12104 0.589844 0 255 255
44.0731 55.091 16.3018 0 255 255
50.0373 59.0647 17.8867 0 255 255
49.9635 58.6032 17.7944 0 255 255
50.808 55.5834 17.4004 0 255 255
50.8307 55.2586 17.3486 0 255 255
50.9577 55.0486 17.3329 0 255 255
27.9237 29.2307 9.3407 0 255 255
28.0492 29.178 9.35196 0 255 255
28.1339 29.0827 9.3497 0 255 255
28.2184 28.9872 9.34745 0 255 255
26.9909 27.38 8.88368 0 255 255
28.2433 28.471 9.26641 0 255 255
28.4014 28.451 9.28892 0 255 255
2.23733 2.21325 0.727174 0 255 255
2.23038 2.19255 0.722672 0 255 255
2.24422 2.19234 0.724923 0 255 255
2.81954 2.29302 0.83974 0 255 255
2.81915 2.27802 0.837489 0 255 255
2.8111 2.25695 0.832986 0 255 255
5.41015 3.2546 1.45885 0 255 255
5.44544 3.25258 1.46561 0 255 255
5.38859 3.19569 1.44759 0 255 255
5.44898 3.20841 1.4611 0 255 255
5.42538 3.17161 1.4521 0 255 255
5.45218 3.16433 1.4566 0 255 255
5.46209 3.14719 1.4566 0 255 255
5.41275 3.09615 1.44084 0 255 255
5.42245 3.07913 1.44084 0 255 255
5.46605 3.08121 1.44985 0 255 255
5.45869 3.05451 1.44534 0 255 255
5.46826 3.03735 1.44534 0 255 255
5.47778 3.02015 1.44534 0 255 255
5.4616 2.9889 1.43859 0 255 255
5.4624 2.96707 1.43634 0 255 255
5.47169 2.9499 1.43634 0 255 255
5.48093 2.93269 1.43634 0 255 255
5.92038 3.14395 1.5489 0 255 255
5.92161 3.12079 1.54665 0 255 255
5.41364 2.72396 1.40032 0 255 255
5.34372 2.66777 1.38005 0 255 255
5.44811 2.69854 1.40482 0 255 255
5.46531 2.68571 1.40707 0 255 255
5.47372 2.66853 1.40707 0 255 255
5.48208 2.65132 1.40707 0 255 255
5.48159 2.62987 1.40482 0 255 255
5.48983 2.61264 1.40482 0 255 255
5.4892 2.59122 1.40257 0 255 255
5.49731 2.57396 1.40257 0 255 255
5.49653 2.55257 1.40032 0 255 255
5.49568 2.53122 1.39806 0 255 255
5.49474 2.50989 1.39581 0 255 255
5.5026 2.49261 1.39581 0 255 255
5.50151 2.47132 1.39356 0 255 255
5.50925 2.45403 1.39356 0 255 255
5.49911 2.42883 1.38906 0 255 255
5.49778 2.40764 1.38681 0 255 255
5.4949 2.36534 1.38231 0 255 255
5.47542 2.3366 1.37555 0 255 255
5.46479 2.31179 1.37105 0 255 255
5.31029 2.22679 1.33053 0 255 255
5.44322 2.26245 1.36204 0 255 255
5.37823 2.21565 1.34403 0 255 255
5.45733 2.2282 1.36204 0 255 255
5.48026 2.1975 1.3643 0 255 255
4.96197 1.9716 1.23372 0 255 255
5.0588 1.99169 1.25623 0 255 255
4.95611 1.9333 1.22922 0 255 255
5.09848 1.97041 1.26299 0 255 255
5.13194 1.96483 1.26974 0 255 255
5.09254 1.93142 1.25848 0 255 255
5.51814 2.07303 1.36204 0 255 255
5.08631 1.89259 1.25398 0 255 255
5.53106 2.03832 1.36204 0 255 255
5.53743 2.02094 1.36204 0 255 255
5.54375 2.00353 1.36204 0 255 255
5.54085 1.98282 1.35979 0 255 255
5.54705 1.9654 1.35979 0 255 255
5.5532 1.94797 1.35979 0 255 255
5.55008 1.92732 1.35754 0 255 255
5.54364 1.88613 1.35304 0 255 255
5.55877 1.87181 1.35529 0 255 255
5.55538 1.85126 1.35304 0 255 255
5.56117 1.8338 1.35304 0 255 255
5.55764 1.8133 1.35079 0 255 255
5.56331 1.79583 1.35079 0 255 255
5.5782 1.78131 1.35304 0 255 255
5.68597 1.79605 1.3778 0 255 255
5.76598 1.80143 1.39581 0 255 255
5.86471 1.81206 1.41833 0 255 255
5.96355 1.8221 1.44084 0 255 255
6.07184 1.83435 1.46561 0 255 255
6.16159 1.84037 1.48587 0 255 255
6.27013 1.85135 1.51063 0 255 255
6.38816 1.8644 1.53765 0 255 255
6.49696 1.87402 1.56241 0 255 255
6.58715 1.87764 1.58267 0 255 255
8.79694 2.47768 2.11173 0 255 255
8.79529 2.44742 2.10948 0 255 255
1.39163 0.377836 0.333194 0 255 255
1.35516 0.363368 0.324189 0 255 255
1.37513 0.364097 0.328692 0 255 255
1.36685 0.35731 0.32644 0 255 255
1.3774 0.355449 0.328692 0 255 255
1.38795 0.353525 0.330943 0 255 255
1.39856 0.351295 0.333194 0 255 255
1.39966 0.346899 0.333194 0 255 255
1.40074 0.3425 0.333194 0 255 255
1.39234 0.335813 0.330943 0 255 255
1.40287 0.333692 0.333194 0 255 255
1.40391 0.329284 0.333194 0 255 255
1.40493 0.324871 0.333194 0 255 255
1.40595 0.320455 0.333194 0 255 255
1.41645 0.318173 0.335446 0 255 255
1.41745 0.313721 0.335446 0 255 255
1.41842 0.309267 0.335446 0 255 255
1.42892 0.306855 0.337697 0 255 255
1.42987 0.302364 0.337697 0 255 255
1.43082 0.297871 0.337697 0 255 255
1.44129 0.29533 0.339948 0 255 255
1.44221 0.290801 0.339948 0 255 255
1.44312 0.286268 0.339948 0 255 255
1.44401 0.281733 0.339948 0 255 255
1.43532 0.27536 0.337697 0 255 255
1.44575 0.272655 0.339948 0 255 255
1.4466 0.268111 0.339948 0 255 255
1.44744 0.263565 0.339948 0 255 255
1.45785 0.260732 0.3422 0 255 255
1.45866 0.256152 0.3422 0 255 255
1.45946 0.251567 0.3422 0 255 255
1.46985 0.248606 0.344451 0 255 255
1.47062 0.243987 0.344451 0 255 255
1.481 0.24093 0.346702 0 255 255
1.48175 0.236277 0.346702 0 255 255
1.49211 0.233124 0.348954 0 255 255
1.4832 0.226961 0.346702 0 255 255
1.49354 0.223744 0.348954 0 255 255
1.4846 0.217638 0.346702 0 255 255
1.50456 0.215739 0.351205 0 255 255
1.49558 0.209658 0.348954 0 255 255
1.50589 0.206281 0.351205 0 255 255
1.49687 0.200257 0.348954 0 255 255
1.50716 0.196816 0.351205 0 255 255
1.50777 0.19208 0.351205 0 255 255
1.51803 0.188543 0.353456 0 255 255
1.51862 0.183772 0.353456 0 255 255
1.53854 0.181281 0.357959 0 255 255
1.51974 0.174228 0.353456 0 255 255
1.52996 0.170531 0.355707 0 255 255
1.54021 0.166504 0.357959 0 255 255
1.53103 0.160648 0.355707 0 255 255
1.54122 0.156823 0.357959 0 255 255
1.54171 0.151981 0.357959 0 255 255
1.55188 0.148062 0.36021 0 255 255
1.54263 0.142291 0.357959 0 255 255
1.55278 0.138308 0.36021 0 255 255
1.56291 0.134264 0.362461 0 255 255
1.55362 0.12855 0.36021 0 255 255
1.56372 0.124441 0.362461 0 255 255
1.56411 0.119528 0.362461 0 255 255
1.56448 0.114613 0.362461 0 255 255
1.57455 0.11038 0.364713 0 255 255
1.57489 0.105432 0.364713 0 255 255
1.58493 0.101104 0.366964 0 255 255
1.58524 0.096125 0.366964 0 255 255
1.59527 0.091703 0.369215 0 255 255
1.59555 0.086692 0.369215 0 255 255
1.60554 0.082176 0.371467 0 255 255
1.60579 0.077131 0.371467 0 255 255
1.60602 0.072087 0.371467 0 255 255
1.60624 0.067041 0.371467 0 255 255
1.61618 0.06237 0.373718 0 255 255
1.61637 0.057292 0.373718 0 255 255
1.61654 0.052214 0.373718 0 255 255
1.6167 0.047135 0.373718 0 255 255
1.62659 0.042026 0.375969 0 255 255
1.62671 0.036915 0.375969 0 255 255
1.6463 0.032186 0.380472 0 255 255
1.64639 0.027013 0.380472 0 255 255
1.65621 0.02197 0.382723 0 255 255
1.65627 0.016767 0.382723 0 255 255
1.65632 0.011563 0.382723 0 255 255
1.67583 0.006435 0.387226 0 255 255
1.6661 0.001163 0.384975 0 255 255
1.67584 -0.004095 0.387226 0 255 255
1.67582 -0.009067 0.387226 0 255 255
1.67578 -0.014332 0.387226 0 255 255
1.67573 -0.019596 0.387226 0 255 255
1.67566 -0.025153 0.387226 0 255 255
1.68531 -0.030594 0.389477 0 255 255
1.69495 -0.036096 0.391728 0 255 255
1.69483 -0.041421 0.391728 0 255 255
1.69469 -0.046745 0.391728 0 255 255
1.70427 -0.052368 0.39398 0 255 255
1.7041 -0.057722 0.39398 0 255 255
1.71364 -0.063435 0.396231 0 255 255
1.71344 -0.068819 0.396231 0 255 255
1.72295 -0.074623 0.398482 0 255 255
1.7227 -0.080035 0.398482 0 255 255
1.72244 -0.085447 0.398482 0 255 255
1.7319 -0.091371 0.400734 0 255 255
1.73158 -0.097114 0.400734 0 255 255
1.73127 -0.102553 0.400734 0 255 255
1.74066 -0.108598 0.402985 0 255 255
1.75004 -0.114703 0.405236 0 255 255
1.75939 -0.120869 0.407488 0 255 255
1.76872 -0.127094 0.409739 0 255 255
1.75859 -0.131921 0.407488 0 255 255
1.75817 -0.137445 0.407488 0 255 255
1.76744 -0.143757 0.409739 0 255 255
1.77669 -0.15013 0.41199 0 255 255
1.78592 -0.156561 0.414242 0 255 255
1.79512 -0.163053 0.416493 0 255 255
1.8043 -0.169603 0.418744 0 255 255
1.80376 -0.175271 0.418744 0 255 255
1.81289 -0.181909 0.420996 0 255 255
1.81231 -0.187604 0.420996 0 255 255
1.8214 -0.19433 0.423247 0 255 255
1.82078 -0.200051 0.423247 0 255 255
1.82014 -0.20577 0.423247 0 255 255
1.82917 -0.212612 0.425498 0 255 255
1.82849 -0.218358 0.425498 0 255 255
1.83747 -0.225287 0.427749 0 255 255
1.84642 -0.232274 0.430001 0 255 255
1.84568 -0.238074 0.430001 0 255 255
1.84488 -0.244193 0.430001 0 255 255
1.85375 -0.251296 0.432252 0 255 255
1.86261 -0.258458 0.434503 0 255 255
1.87143 -0.265678 0.436755 0 255 255
1.87059 -0.271556 0.436755 0 255 255
1.86973 -0.277431 0.436755 0 255 255
1.86885 -0.283304 0.436755 0 255 255
1.86795 -0.289173 0.436755 0 255 255
1.87665 -0.296561 0.439006 0 255 255
1.88533 -0.304006 0.441257 0 255 255
1.89398 -0.311509 0.443509 0 255 255
1.88338 -0.315846 0.441257 0 255 255
1.90159 -0.325045 0.44576 0 255 255
1.90056 -0.331017 0.44576 0 255 255
1.90904 -0.339021 0.448011 0 255 255
1.90797 -0.345017 0.448011 0 255 255
1.91646 -0.352773 0.450263 0 255 255
1.89619 -0.355204 0.44576 0 255 255
1.89506 -0.36116 0.44576 0 255 255
9.29742 -1.80218 2.18828 0 255 255
9.25347 -1.82385 2.17927 0 255 255
9.23814 -1.85099 2.17702 0 255 255
9.25138 -1.8839 2.18152 0 255 255
9.2645 -1.9169 2.18602 0 255 255
9.26796 -1.948 2.18828 0 255 255
9.27133 -1.97914 2.19053 0 255 255
9.27458 -2.01032 2.19278 0 255 255
9.27774 -2.04154 2.19503 0 255 255
9.28043 -2.07442 2.19728 0 255 255
9.28337 -2.10572 2.19953 0 255 255
9.30519 -2.14143 2.20629 0 255 255
9.28893 -2.16844 2.20404 0 255 255
9.26311 -2.19312 2.19953 0 255 255
9.29407 -2.23131 2.20854 0 255 255
9.28701 -2.26049 2.20854 0 255 255
9.18527 -2.26632 2.18602 0 255 255
9.14975 -2.28807 2.17927 0 255 255
9.30307 -2.3575 2.21754 0 255 255
9.26731 -2.37944 2.21079 0 255 255
9.12778 -2.37421 2.17927 0 255 255
9.31813 -2.455 2.22655 0 255 255
9.2633 -2.4717 2.21529 0 255 255
9.2743 -2.50587 2.21979 0 255 255
9.22879 -2.52471 2.21079 0 255 255
9.17387 -2.54069 2.19953 0 255 255
9.33471 -2.61684 2.24006 0 255 255
8.96981 -2.54666 2.15451 0 255 255
9.09287 -2.61249 2.18602 0 255 255
9.33723 -2.71448 2.24681 0 255 255
8.89868 -2.61734 2.14325 0 255 255
9.17991 -2.73142 2.21304 0 255 255
9.31123 -2.80236 2.24681 0 255 255
8.79904 -2.67839 2.12524 0 255 255
9.34963 -2.94255 2.26482 0 255 255
9.36767 -2.9824 2.27157 0 255 255
8.65337 -2.78496 2.10048 0 255 255
8.58943 -2.82406 2.08922 0 255 255
8.53457 -2.86557 2.08021 0 255 255
9.37438 -3.18035 2.28733 0 255 255
9.37356 -3.21294 2.28959 0 255 255
8.47956 -2.93631 2.07346 0 255 255
8.43338 -2.97979 2.0667 0 255 255
8.36814 -3.01766 2.05545 0 255 255
9.41107 -3.59562 2.32786 0 255 255
9.45121 -3.68107 2.34362 0 255 255
9.44866 -3.71431 2.34587 0 255 255
8.12374 -3.22298 2.01943 0 255 255
7.87488 -3.41593 1.98341 0 255 255
9.50235 -4.19302 2.3999 0 255 255
9.48471 -4.25663 2.40215 0 255 255
9.50209 -4.33636 2.41341 0 255 255
7.56751 -3.68765 1.94513 0 255 255
7.54715 -3.70711 1.94288 0 255 255
