ply
format ascii 1.0
element vertex 1305
property float x
property float y
property float z
property uchar red
property uchar green
property uchar blue
end_header
6.52893 -7.34338 1.90995 0 255 255
6.53833 -7.40064 1.91949 0 255 255
6.54612 -7.45917 1.92903 0 255 255
6.54846 -7.50929 1.93666 0 255 255
6.54924 -7.56064 1.94429 0 255 255
6.5588 -7.61724 1.95383 0 255 255
6.56809 -7.67395 1.96337 0 255 255
6.56938 -7.72446 1.971 0 255 255
6.5831 -7.79004 1.98245 0 255 255
6.58384 -7.84076 1.99008 0 255 255
6.59062 -7.89909 1.99962 0 255 255
6.5971 -7.95754 2.00917 0 255 255
6.59079 -8.00096 2.01489 0 255 255
7.85885 -9.60164 2.41176 0 255 255
7.81007 -9.60343 2.40604 0 255 255
7.76135 -9.60502 2.40031 0 255 255
7.7127 -9.60639 2.39459 0 255 255
7.67024 -9.61522 2.39077 0 255 255
7.6217 -9.61619 2.38505 0 255 255
7.57931 -9.62467 2.38123 0 255 255
7.52484 -9.61751 2.3736 0 255 255
7.48856 -9.63335 2.37169 0 255 255
7.44026 -9.63352 2.36597 0 255 255
7.39801 -9.64127 2.36215 0 255 255
7.35578 -9.64885 2.35834 0 255 255
7.31358 -9.65626 2.35452 0 255 255
7.25791 -9.64908 2.34689 0 255 255
7.21581 -9.65611 2.34307 0 255 255
7.17205 -9.66422 2.33926 0 255 255
7.13169 -9.66966 2.33544 0 255 255
7.08967 -9.67618 2.33162 0 255 255
7.04769 -9.68253 2.32781 0 255 255
7.00742 -9.68749 2.32399 0 255 255
6.95977 -9.68554 2.31827 0 255 255
6.9179 -9.69138 2.31445 0 255 255
6.87606 -9.69705 2.31064 0 255 255
6.83426 -9.70255 2.30682 0 255 255
6.79249 -9.70789 2.303 0 255 255
6.74515 -9.705 2.29728 0 255 255
6.70347 -9.70999 2.29346 0 255 255
6.66739 -9.7229 2.29155 0 255 255
6.63128 -9.73569 2.28965 0 255 255
6.58416 -9.73208 2.28392 0 255 255
6.54808 -9.74457 2.28201 0 255 255
6.50654 -9.74876 2.2782 0 255 255
6.46503 -9.75279 2.27438 0 255 255
6.42726 -9.76598 2.27247 0 255 255
6.38043 -9.76147 2.26675 0 255 255
6.34439 -9.77324 2.26484 0 255 255
6.2977 -9.76837 2.25912 0 255 255
6.25639 -9.77157 2.2553 0 255 255
6.2204 -9.78289 2.25339 0 255 255
6.17915 -9.78579 2.24958 0 255 255
6.13795 -9.78852 2.24576 0 255 255
6.10197 -9.79942 2.24385 0 255 255
6.066 -9.81019 2.24195 0 255 255
6.01974 -9.8041 2.23622 0 255 255
5.97869 -9.8062 2.2324 0 255 255
5.93768 -9.80814 2.22859 0 255 255
5.90178 -9.81834 2.22668 0 255 255
5.86085 -9.81997 2.22287 0 255 255
5.81996 -9.82145 2.21905 0 255 255
5.7841 -9.83122 2.21714 0 255 255
5.74328 -9.83239 2.21333 0 255 255
5.70252 -9.8334 2.20951 0 255 255
5.6618 -9.83425 2.20569 0 255 255
5.62114 -9.83495 2.20188 0 255 255
5.58052 -9.83548 2.19806 0 255 255
5.54959 -9.85296 2.19806 0 255 255
5.50903 -9.85321 2.19424 0 255 255
5.46852 -9.85331 2.19043 0 255 255
5.43754 -9.87044 2.19043 0 255 255
5.39238 -9.86163 2.1847 0 255 255
5.35669 -9.8699 2.1828 0 255 255
5.321 -9.87804 2.18089 0 255 255
5.27605 -9.86873 2.17516 0 255 255
5.24043 -9.87659 2.17326 0 255 255
5.2048 -9.88432 2.17135 0 255 255
5.16463 -9.88322 2.16753 0 255 255
5.13355 -9.8994 2.16753 0 255 255
5.09344 -9.89802 2.16372 0 255 255
5.05339 -9.89649 2.1599 0 255 255
5.01784 -9.90356 2.15799 0 255 255
4.9823 -9.9105 2.15608 0 255 255
4.94675 -9.91732 2.15418 0 255 255
4.90687 -9.91521 2.15036 0 255 255
4.86704 -9.91296 2.14654 0 255 255
4.5057 -9.32465 2.01298 0 255 255
4.54427 -9.48039 2.04351 0 255 255
4.70415 -9.89355 2.12937 0 255 255
4.68561 -9.93491 2.13509 0 255 255
4.64606 -9.9318 2.13128 0 255 255
4.6107 -9.93745 2.12937 0 255 255
4.58767 -9.96972 2.13319 0 255 255
4.54817 -9.96622 2.12937 0 255 255
4.51279 -9.97151 2.12746 0 255 255
4.4734 -9.96773 2.12365 0 255 255
4.43408 -9.9638 2.11983 0 255 255
4.3988 -9.9687 2.11792 0 255 255
4.36352 -9.97348 2.11601 0 255 255
4.32262 -9.96988 2.1122 0 255 255
4.29302 -9.98266 2.1122 0 255 255
4.25394 -9.97804 2.10838 0 255 255
4.21875 -9.98231 2.10647 0 255 255
4.18357 -9.98646 2.10457 0 255 255
4.15043 -10.0003 2.10457 0 255 255
4.11526 -10.0042 2.10266 0 255 255
4.08185 -10.0073 2.10075 0 255 255
4.04671 -10.0109 2.09884 0 255 255
4.0135 -10.0243 2.09884 0 255 255
3.97112 -10.0095 2.09312 0 255 255
3.93966 -10.0219 2.09312 0 255 255
3.90459 -10.0251 2.09121 0 255 255
3.86601 -10.019 2.08739 0 255 255
3.82751 -10.0128 2.08358 0 255 255
3.78212 -9.98801 2.07595 0 255 255
3.75762 -10.0182 2.07976 0 255 255
3.72271 -10.0208 2.07785 0 255 255
3.69121 -10.0324 2.07785 0 255 255
3.65632 -10.0347 2.07595 0 255 255
3.61811 -10.0277 2.07213 0 255 255
3.57998 -10.0205 2.06831 0 255 255
3.55503 -10.0503 2.07213 0 255 255
3.52344 -10.0614 2.07213 0 255 255
3.4772 -10.0359 2.0645 0 255 255
3.42192 -9.97189 2.04923 0 255 255
3.41899 -10.0662 2.06641 0 255 255
3.37934 -10.0589 2.06259 0 255 255
3.35391 -10.0881 2.06641 0 255 255
3.3209 -10.0887 2.0645 0 255 255
3.28615 -10.0897 2.06259 0 255 255
3.25142 -10.0907 2.06068 0 255 255
3.21971 -10.1008 2.06068 0 255 255
3.18324 -10.1021 2.05877 0 255 255
3.14857 -10.1027 2.05686 0 255 255
3.11569 -10.1026 2.05496 0 255 255
3.08393 -10.1123 2.05496 0 255 255
3.04932 -10.1126 2.05305 0 255 255
3.01473 -10.1127 2.05114 0 255 255
2.98117 -10.1226 2.05114 0 255 255
2.94936 -10.132 2.05114 0 255 255
2.9148 -10.1317 2.04923 0 255 255
2.88027 -10.1314 2.04732 0 255 255
2.84843 -10.1404 2.04732 0 255 255
2.81393 -10.1398 2.04542 0 255 255
2.78206 -10.1486 2.04542 0 255 255
2.7476 -10.1479 2.04351 0 255 255
2.71571 -10.1564 2.04351 0 255 255
2.68128 -10.1554 2.0416 0 255 255
2.64936 -10.1638 2.0416 0 255 255
2.61742 -10.1721 2.0416 0 255 255
2.58304 -10.1707 2.03969 0 255 255
2.55107 -10.1788 2.03969 0 255 255
2.51672 -10.1772 2.03779 0 255 255
2.48474 -10.1851 2.03779 0 255 255
2.45043 -10.1833 2.03588 0 255 255
2.41843 -10.1909 2.03588 0 255 255
2.38417 -10.1889 2.03397 0 255 255
2.34994 -10.1868 2.03206 0 255 255
2.31792 -10.1941 2.03206 0 255 255
2.28589 -10.2014 2.03206 0 255 255
2.25171 -10.1989 2.03015 0 255 255
2.21966 -10.2059 2.03015 0 255 255
2.18553 -10.2033 2.02824 0 255 255
2.15346 -10.2101 2.02824 0 255 255
2.1176 -10.2076 2.02634 0 255 255
2.08552 -10.2142 2.02634 0 255 255
2.05342 -10.2207 2.02634 0 255 255
2.0213 -10.2271 2.02634 0 255 255
1.98907 -10.2234 2.02443 0 255 255
1.95695 -10.2296 2.02443 0 255 255
1.92659 -10.2353 2.02443 0 255 255
1.88906 -10.2323 2.02252 0 255 255
1.8587 -10.2379 2.02252 0 255 255
1.82652 -10.2437 2.02252 0 255 255
1.79264 -10.2397 2.02061 0 255 255
1.76046 -10.2453 2.02061 0 255 255
1.72827 -10.2508 2.02061 0 255 255
1.69606 -10.2562 2.02061 0 255 255
1.66203 -10.2617 2.02061 0 255 255
1.62979 -10.2669 2.02061 0 255 255
1.59602 -10.2623 2.0187 0 255 255
1.56525 -10.2769 2.02061 0 255 255
1.53151 -10.2721 2.0187 0 255 255
1.49923 -10.2768 2.0187 0 255 255
1.46694 -10.2815 2.0187 0 255 255
1.43463 -10.2861 2.0187 0 255 255
1.40231 -10.2905 2.0187 0 255 255
1.36997 -10.2949 2.0187 0 255 255
1.33762 -10.2991 2.0187 0 255 255
1.30526 -10.3033 2.0187 0 255 255
1.27168 -10.2976 2.0168 0 255 255
1.23933 -10.3015 2.0168 0 255 255
1.20696 -10.3054 2.0168 0 255 255
1.17346 -10.2994 2.01489 0 255 255
1.14218 -10.3128 2.0168 0 255 255
1.10798 -10.3165 2.0168 0 255 255
1.07736 -10.3197 2.0168 0 255 255
1.04494 -10.3231 2.0168 0 255 255
1.0125 -10.3263 2.0168 0 255 255
0.430311 -4.86953 0.950203 0 255 255
0.315009 -3.69716 0.721239 0 255 255
0.300181 -3.659 0.713606 0 255 255
0.290229 -3.67949 0.717422 0 255 255
0.278668 -3.68039 0.717422 0 255 255
0.267104 -3.68124 0.717422 0 255 255
0.254858 -3.67227 0.715514 0 255 255
0.143394 -2.27286 0.442665 0 255 255
0.135079 -2.2537 0.438849 0 255 255
0.127998 -2.25411 0.438849 0 255 255
0.119864 -2.2349 0.435033 0 255 255
0.112348 -2.22546 0.433125 0 255 255
0.104892 -2.216 0.431217 0 255 255
0.098363 -2.22612 0.433125 0 255 255
0.090966 -2.21661 0.431217 0 255 255
0.082887 -2.18746 0.425493 0 255 255
0.076014 -2.18771 0.425493 0 255 255
0.068451 -2.17814 0.423585 0 255 255
0.062267 -2.18814 0.425493 0 255 255
0.055144 -2.17852 0.423585 0 255 255
0.048082 -2.16886 0.421677 0 255 255
0.041082 -2.15919 0.419768 0 255 255
0.033767 -2.1495 0.41786 0 255 255
0.027014 -2.1496 0.41786 0 255 255
0.020261 -2.14967 0.41786 0 255 255
0.013446 -2.13991 0.415952 0 255 255
0.006723 -2.13994 0.415952 0 255 255
-0 -2.13995 0.415952 0 255 255
-0.006723 -2.13994 0.415952 0 255 255
-0.013384 -2.13009 0.414044 0 255 255
-0.020076 -2.13004 0.414044 0 255 255
-0.026767 -2.12997 0.414044 0 255 255
-0.033459 -2.12987 0.414044 0 255 255
-0.04015 -2.12976 0.414044 0 255 255
-0.046625 -2.1198 0.412136 0 255 255
-0.053284 -2.11965 0.412136 0 255 255
-0.059943 -2.11947 0.412136 0 255 255
-0.066601 -2.11927 0.412136 0 255 255
-0.072919 -2.10924 0.410228 0 255 255
-0.080285 -2.12862 0.414044 0 255 255
-0.086571 -2.11855 0.412136 0 255 255
-0.093226 -2.11827 0.412136 0 255 255
-0.09988 -2.11796 0.412136 0 255 255
-0.106534 -2.11764 0.412136 0 255 255
-0.11371 -2.1271 0.414044 0 255 255
-0.120392 -2.12673 0.414044 0 255 255
-0.126857 -2.11652 0.412136 0 255 255
-0.134123 -2.12591 0.414044 0 255 255
-0.140801 -2.12547 0.414044 0 255 255
-0.148158 -2.13481 0.415952 0 255 255
-0.154153 -2.12455 0.414044 0 255 255
-0.161568 -2.13384 0.415952 0 255 255
-0.168271 -2.13332 0.415952 0 255 255
-0.174972 -2.13278 0.415952 0 255 255
-0.182505 -2.142 0.41786 0 255 255
-0.189233 -2.14142 0.41786 0 255 255
-0.19596 -2.14082 0.41786 0 255 255
-0.20361 -2.14996 0.419768 0 255 255
-0.211319 -2.15908 0.421677 0 255 255
-0.219088 -2.16817 0.423585 0 255 255
-0.225899 -2.16747 0.423585 0 255 255
-0.232707 -2.16675 0.423585 0 255 255
-0.240592 -2.17577 0.425493 0 255 255
-0.248535 -2.18476 0.427401 0 255 255
-0.255397 -2.18396 0.427401 0 255 255
-0.263811 -2.19285 0.429309 0 255 255
-0.271902 -2.20175 0.431217 0 255 255
-0.278818 -2.20089 0.431217 0 255 255
-0.287872 -2.21952 0.435033 0 255 255
-0.495711 -3.63767 0.713606 0 255 255
-0.523409 -3.75276 0.736503 0 255 255
-0.534542 -3.75119 0.736503 0 255 255
-0.546324 -3.74949 0.736503 0 255 255
-0.558754 -3.74766 0.736503 0 255 255
-0.572004 -3.75559 0.738411 0 255 255
-0.584651 -3.76358 0.740319 0 255 255
-0.596471 -3.76172 0.740319 0 255 255
-0.608286 -3.75983 0.740319 0 255 255
-0.620095 -3.7579 0.740319 0 255 255
-0.631898 -3.75593 0.740319 0 255 255
-0.645353 -3.7636 0.742227 0 255 255
-0.659521 -3.77111 0.744135 0 255 255
-0.669643 -3.75936 0.742227 0 255 255
-0.684954 -3.77655 0.746043 0 255 255
-0.695034 -3.76473 0.744135 0 255 255
-0.70867 -3.77218 0.746043 0 255 255
-0.720517 -3.76993 0.746043 0 255 255
-0.734229 -3.77728 0.747951 0 255 255
-1.4979 -7.57881 1.50163 0 255 255
-1.5217 -7.57407 1.50163 0 255 255
-1.54745 -7.57886 1.50353 0 255 255
-1.57125 -7.57397 1.50353 0 255 255
-1.59706 -7.5786 1.50544 0 255 255
-1.62086 -7.57354 1.50544 0 255 255
-1.64673 -7.578 1.50735 0 255 255
-1.67264 -7.58238 1.50926 0 255 255
-1.69646 -7.57709 1.50926 0 255 255
-1.72243 -7.58129 1.51117 0 255 255
-1.74844 -7.58541 1.51307 0 255 255
-1.77226 -7.57988 1.51307 0 255 255
-1.79833 -7.58383 1.51498 0 255 255
-1.82444 -7.58768 1.51689 0 255 255
-1.84827 -7.58191 1.51689 0 255 255
-1.87679 -7.59513 1.52071 0 255 255
-1.90064 -7.5892 1.52071 0 255 255
-1.9293 -7.60222 1.52452 0 255 255
-1.95318 -7.59612 1.52452 0 255 255
-1.97703 -7.58994 1.52452 0 255 255
-3.60106 -13.6488 2.74376 0 255 255
-3.64392 -13.6374 2.74376 0 255 255
-3.68675 -13.6259 2.74376 0 255 255
-3.72953 -13.6142 2.74376 0 255 255
-3.75891 -13.545 2.73231 0 255 255
-3.78847 -13.496 2.72468 0 255 255
-3.80939 -13.4085 2.70941 0 255 255
-3.95777 -13.4473 2.72468 0 255 255
-4.12604 -13.8582 2.81054 0 255 255
-4.17239 -13.8546 2.81245 0 255 255
-4.22447 -13.8696 2.81817 0 255 255
-4.26802 -13.8562 2.81817 0 255 255
-4.31153 -13.8427 2.81817 0 255 255
-4.36036 -13.8377 2.82008 0 255 255
-4.40084 -13.8146 2.81817 0 255 255
-4.45023 -13.8194 2.82199 0 255 255
-4.49363 -13.8054 2.82199 0 255 255
-4.53697 -13.7912 2.82199 0 255 255
-4.58337 -13.7862 2.8239 0 255 255
-4.62666 -13.7717 2.8239 0 255 255
-4.66991 -13.7571 2.8239 0 255 255
-4.71947 -13.7609 2.82771 0 255 255
-4.71447 -13.6069 2.79909 0 255 255
-4.76044 -13.6013 2.801 0 255 255
-4.80314 -13.5863 2.801 0 255 255
-4.86561 -13.6266 2.81245 0 255 255
-4.91838 -13.6389 2.81817 0 255 255
-4.97128 -13.6511 2.8239 0 255 255
-5.02092 -13.6538 2.82771 0 255 255
-5.06038 -13.6288 2.8258 0 255 255
-5.11006 -13.6312 2.82962 0 255 255
-5.15523 -13.6142 2.82962 0 255 255
-5.20499 -13.6162 2.83344 0 255 255
-5.24067 -13.5815 2.82962 0 255 255
-5.28331 -13.565 2.82962 0 255 255
-5.3343 -13.5767 2.83535 0 255 255
-5.37693 -13.5598 2.83535 0 255 255
-5.42187 -13.5419 2.83535 0 255 255
-5.46806 -13.5339 2.83725 0 255 255
-5.51426 -13.5258 2.83916 0 255 255
-5.56046 -13.5175 2.84107 0 255 255
-5.6029 -13.4999 2.84107 0 255 255
-5.64907 -13.4913 2.84298 0 255 255
-5.69143 -13.4735 2.84298 0 255 255
-5.72988 -13.4465 2.84107 0 255 255
-5.78372 -13.4555 2.84679 0 255 255
-5.82206 -13.4283 2.84489 0 255 255
-5.87209 -13.4279 2.8487 0 255 255
-5.91028 -13.4004 2.84679 0 255 255
-5.94038 -13.3549 2.84107 0 255 255
-5.99838 -13.372 2.8487 0 255 255
-0.176789 -0.259649 0.061057 0 255 255
-0.172054 -0.250996 0.059149 0 255 255
-0.16169 -0.234296 0.055333 0 255 255
-0.179273 -0.25794 0.061057 0 255 255
-0.168827 -0.24129 0.057241 0 255 255
-0.175237 -0.248783 0.059149 0 255 255
-0.158984 -0.224209 0.053425 0 255 255
-0.171094 -0.239688 0.057241 0 255 255
-0.171846 -0.239149 0.057241 0 255 255
-0.16109 -0.222701 0.053425 0 255 255
-0.161789 -0.222194 0.053425 0 255 255
-0.162486 -0.221684 0.053425 0 255 255
-0.16901 -0.229072 0.055333 0 255 255
-0.169729 -0.22854 0.055333 0 255 255
-0.158691 -0.212281 0.051517 0 255 255
-0.165259 -0.219625 0.053425 0 255 255
-0.165948 -0.219105 0.053425 0 255 255
-0.166636 -0.218582 0.053425 0 255 255
-0.167322 -0.218058 0.053425 0 255 255
-0.173967 -0.22533 0.055333 0 255 255
-0.174674 -0.224783 0.055333 0 255 255
-0.16332 -0.20874 0.051517 0 255 255
-0.170049 -0.215938 0.053425 0 255 255
-0.170726 -0.215403 0.053425 0 255 255
-0.171402 -0.214865 0.053425 0 255 255
-0.165895 -0.2067 0.051517 0 255 255
-0.166543 -0.206178 0.051517 0 255 255
-0.173419 -0.21324 0.053425 0 255 255
-0.186523 -0.227887 0.057241 0 255 255
-0.19348 -0.234877 0.059149 0 255 255
-0.175421 -0.211597 0.053425 0 255 255
-0.176085 -0.211044 0.053425 0 255 255
-0.176747 -0.21049 0.053425 0 255 255
-0.19008 -0.224929 0.057241 0 255 255
-0.197145 -0.231809 0.059149 0 255 255
-0.191489 -0.22373 0.057241 0 255 255
-0.205004 -0.238003 0.061057 0 255 255
-0.21861 -0.252192 0.064873 0 255 255
-0.225854 -0.258902 0.066781 0 255 255
-0.22019 -0.250814 0.064873 0 255 255
-0.233976 -0.264834 0.068689 0 255 255
-0.234807 -0.264098 0.068689 0 255 255
-0.248726 -0.27799 0.072505 0 255 255
-0.249598 -0.277207 0.072505 0 255 255
-0.257059 -0.283696 0.074414 0 255 255
-0.257949 -0.282887 0.074414 0 255 255
-0.27211 -0.29654 0.07823 0 255 255
-0.273041 -0.295684 0.07823 0 255 255
-0.273968 -0.294825 0.07823 0 255 255
-0.281598 -0.301132 0.080138 0 255 255
-0.289269 -0.307395 0.082046 0 255 255
-0.283484 -0.299357 0.080138 0 255 255
-0.297967 -0.312678 0.083954 0 255 255
-0.292154 -0.304655 0.082046 0 255 255
-0.306742 -0.317863 0.085862 0 255 255
-0.307739 -0.316898 0.085862 0 255 255
-0.308733 -0.315929 0.085862 0 255 255
-0.309724 -0.314958 0.085862 0 255 255
-0.310712 -0.313983 0.085862 0 255 255
-0.311697 -0.313006 0.085862 0 255 255
-0.326576 -0.325893 0.089678 0 255 255
-0.313658 -0.311041 0.085862 0 255 255
-0.321625 -0.316944 0.08777 0 255 255
-0.329633 -0.3228 0.089678 0 255 255
-0.344774 -0.335395 0.093494 0 255 255
-0.345767 -0.334371 0.093494 0 255 255
-0.346816 -0.333283 0.093494 0 255 255
-0.340762 -0.325412 0.091586 0 255 255
-0.348903 -0.331097 0.093494 0 255 255
-0.357084 -0.336734 0.095402 0 255 255
-0.350977 -0.328898 0.093494 0 255 255
-0.366376 -0.341173 0.09731 0 255 255
-0.360241 -0.333354 0.095402 0 255 255
-0.368513 -0.338865 0.09731 0 255 255
-0.362329 -0.331084 0.095402 0 255 255
-0.370634 -0.336543 0.09731 0 255 255
-0.37169 -0.335377 0.09731 0 255 255
-0.372742 -0.334207 0.09731 0 255 255
-0.37379 -0.333035 0.09731 0 255 255
-0.382184 -0.338366 0.099218 0 255 255
-0.383245 -0.337163 0.099218 0 255 255
-0.399083 -0.348879 0.103034 0 255 255
-0.370535 -0.321874 0.095402 0 255 255
-0.386464 -0.333469 0.099218 0 255 255
-0.372605 -0.319474 0.095402 0 255 255
-0.373552 -0.318367 0.095402 0 255 255
-0.382041 -0.323536 0.09731 0 255 255
-0.375489 -0.316079 0.095402 0 255 255
-0.384122 -0.321062 0.09731 0 255 255
-0.377523 -0.313648 0.095402 0 255 255
-0.370936 -0.306211 0.093494 0 255 255
-0.379486 -0.31127 0.095402 0 255 255
-0.380462 -0.310076 0.095402 0 255 255
-0.381434 -0.308879 0.095402 0 255 255
-0.374755 -0.301526 0.093494 0 255 255
-0.391035 -0.312606 0.09731 0 255 255
-0.384328 -0.305271 0.095402 0 255 255
-0.37758 -0.297981 0.093494 0 255 255
-0.378514 -0.296793 0.093494 0 255 255
-0.387188 -0.301635 0.095402 0 255 255
-0.388134 -0.300417 0.095402 0 255 255
-0.389076 -0.299196 0.095402 0 255 255
-0.390014 -0.297973 0.095402 0 255 255
-0.398767 -0.302681 0.09731 0 255 255
-0.368366 -0.277785 0.089678 0 255 255
-0.384949 -0.288398 0.093494 0 255 255
-0.385853 -0.287187 0.093494 0 255 255
-0.394646 -0.29181 0.095402 0 255 255
-0.395561 -0.290568 0.095402 0 255 255
-0.396472 -0.289324 0.095402 0 255 255
-0.389431 -0.282316 0.093494 0 255 255
-0.390316 -0.281091 0.093494 0 255 255
-0.391197 -0.279863 0.093494 0 255 255
-0.392075 -0.278633 0.093494 0 255 255
-0.392948 -0.2774 0.093494 0 255 255
-0.401855 -0.2818 0.095402 0 255 255
-0.410793 -0.286147 0.09731 0 255 255
-0.387473 -0.268099 0.091586 0 255 255
-0.404493 -0.278 0.095402 0 255 255
-0.413471 -0.282263 0.09731 0 255 255
-0.414356 -0.280962 0.09731 0 255 255
-0.423379 -0.285143 0.099218 0 255 255
-0.407954 -0.272895 0.095402 0 255 255
-0.416986 -0.277045 0.09731 0 255 255
-0.426047 -0.28114 0.099218 0 255 255
-0.418718 -0.274419 0.09731 0 255 255
-0.411351 -0.267747 0.095402 0 255 255
-0.420434 -0.271783 0.09731 0 255 255
-0.429546 -0.275764 0.099218 0 255 255
-0.438688 -0.27969 0.101126 0 255 255
-0.431271 -0.273059 0.099218 0 255 255
-0.423816 -0.266478 0.09731 0 255 255
-0.432978 -0.270344 0.099218 0 255 255
-0.433825 -0.268983 0.099218 0 255 255
-0.443027 -0.272765 0.101126 0 255 255
-0.435506 -0.266252 0.099218 0 255 255
-0.436341 -0.264882 0.099218 0 255 255
-0.437171 -0.26351 0.099218 0 255 255
-0.446419 -0.267176 0.101126 0 255 255
-0.447257 -0.265773 0.101126 0 255 255
-0.448089 -0.264366 0.101126 0 255 255
-0.448918 -0.262957 0.101126 0 255 255
-0.441256 -0.256611 0.099218 0 255 255
-0.433515 -0.250391 0.09731 0 255 255
-0.451331 -0.258793 0.101126 0 255 255
-0.443655 -0.252441 0.099218 0 255 255
-0.444446 -0.251046 0.099218 0 255 255
-0.43667 -0.244847 0.09731 0 255 255
-0.454591 -0.253022 0.101126 0 255 255
-0.446792 -0.246846 0.099218 0 255 255
-0.447565 -0.245441 0.099218 0 255 255
-0.439712 -0.239341 0.09731 0 255 255
-0.449098 -0.242624 0.099218 0 255 255
-0.449858 -0.241212 0.099218 0 255 255
-0.45928 -0.244409 0.101126 0 255 255
-0.460045 -0.242965 0.101126 0 255 255
-0.452112 -0.236962 0.099218 0 255 255
-0.452854 -0.23554 0.099218 0 255 255
-0.453592 -0.234116 0.099218 0 255 255
-0.454325 -0.23269 0.099218 0 255 255
-0.446303 -0.226814 0.09731 0 255 255
-0.464543 -0.234251 0.101126 0 255 255
-0.456498 -0.228398 0.099218 0 255 255
-0.457213 -0.226963 0.099218 0 255 255
-0.46673 -0.229862 0.101126 0 255 255
-0.45863 -0.224085 0.099218 0 255 255
-0.450498 -0.218362 0.09731 0 255 255
-0.45999 -0.22128 0.099218 0 255 255
-0.469543 -0.224061 0.101126 0 255 255
-0.452536 -0.214106 0.09731 0 255 255
-0.462093 -0.216854 0.099218 0 255 255
-0.462735 -0.215482 0.099218 0 255 255
-0.454498 -0.209911 0.09731 0 255 255
-0.464079 -0.21257 0.099218 0 255 255
-0.473682 -0.215171 0.101126 0 255 255
-0.465442 -0.209569 0.099218 0 255 255
-0.466099 -0.208106 0.099218 0 255 255
-0.475689 -0.210697 0.101126 0 255 255
-0.467361 -0.205254 0.099218 0 255 255
-0.477004 -0.207704 0.101126 0 255 255
-0.468641 -0.202314 0.099218 0 255 255
-0.469275 -0.200841 0.099218 0 255 255
-0.460867 -0.195531 0.09731 0 255 255
-0.470527 -0.197888 0.099218 0 255 255
-0.471181 -0.196327 0.099218 0 255 255
-0.471761 -0.194928 0.099218 0 255 255
-0.463288 -0.189725 0.09731 0 255 255
-0.472977 -0.19196 0.099218 0 255 255
-0.473578 -0.190473 0.099218 0 255 255
-0.474174 -0.188984 0.099218 0 255 255
-0.474765 -0.187494 0.099218 0 255 255
-0.475352 -0.186001 0.099218 0 255 255
-0.485086 -0.188055 0.101126 0 255 255
-0.476511 -0.183011 0.099218 0 255 255
-0.477084 -0.181513 0.099218 0 255 255
-0.47762 -0.180097 0.099218 0 255 255
-0.478184 -0.178595 0.099218 0 255 255
-0.469566 -0.173605 0.09731 0 255 255
-0.479327 -0.175504 0.099218 0 255 255
-0.461419 -0.167305 0.095402 0 255 255
-0.48042 -0.172488 0.099218 0 255 255
-0.48096 -0.170978 0.099218 0 255 255
-0.481494 -0.169466 0.099218 0 255 255
-0.481995 -0.168037 0.099218 0 255 255
-0.4918 -0.169724 0.101126 0 255 255
-0.483041 -0.165005 0.099218 0 255 255
-0.483557 -0.163487 0.099218 0 255 255
-0.47476 -0.158852 0.09731 0 255 255
-0.484575 -0.160446 0.099218 0 255 255
-0.475748 -0.155866 0.09731 0 255 255
-0.485574 -0.157398 0.099218 0 255 255
-0.486066 -0.155871 0.099218 0 255 255
-0.486553 -0.154344 0.099218 0 255 255
-0.477669 -0.149876 0.09731 0 255 255
-0.478138 -0.148374 0.09731 0 255 255
-0.478602 -0.146871 0.09731 0 255 255
-0.488454 -0.148217 0.099218 0 255 255
-0.488917 -0.146682 0.099218 0 255 255
-0.479965 -0.142354 0.09731 0 255 255
-0.489829 -0.143607 0.099218 0 255 255
-0.471421 -0.136604 0.095402 0 255 255
-0.490722 -0.140527 0.099218 0 255 255
-0.491161 -0.138985 0.099218 0 255 255
-0.482141 -0.134798 0.09731 0 255 255
-0.482563 -0.133282 0.09731 0 255 255
-0.492449 -0.134349 0.099218 0 255 255
-0.48339 -0.130248 0.09731 0 255 255
-0.493283 -0.131253 0.099218 0 255 255
-0.493693 -0.129702 0.099218 0 255 255
-0.484596 -0.125686 0.09731 0 255 255
-0.494499 -0.126598 0.099218 0 255 255
-0.494894 -0.125044 0.099218 0 255 255
-0.495263 -0.123575 0.099218 0 255 255
-0.486117 -0.119672 0.09731 0 255 255
-0.496029 -0.12046 0.099218 0 255 255
-0.496405 -0.118902 0.099218 0 255 255
-0.496776 -0.117341 0.099218 0 255 255
-0.497143 -0.11578 0.099218 0 255 255
-0.487936 -0.112021 0.09731 0 255 255
-0.49786 -0.112654 0.099218 0 255 255
-0.488631 -0.108953 0.09731 0 255 255
-0.488971 -0.107418 0.09731 0 255 255
-0.489306 -0.105881 0.09731 0 255 255
-0.499237 -0.106389 0.099218 0 255 255
-0.489961 -0.102805 0.09731 0 255 255
-0.490282 -0.101265 0.09731 0 255 255
-0.480978 -0.097769 0.095402 0 255 255
-0.490908 -0.098182 0.09731 0 255 255
-0.481583 -0.094745 0.095402 0 255 255
-0.491499 -0.095182 0.09731 0 255 255
-0.491796 -0.093637 0.09731 0 255 255
-0.492087 -0.092092 0.09731 0 255 255
-0.48272 -0.08877 0.095402 0 255 255
-0.502332 -0.090655 0.099218 0 255 255
-0.483283 -0.085651 0.095402 0 255 255
-0.493236 -0.085729 0.09731 0 255 255
-0.483812 -0.082613 0.095402 0 255 255
-0.493736 -0.0828 0.09731 0 255 255
-0.493993 -0.081249 0.09731 0 255 255
-0.484555 -0.078134 0.095402 0 255 255
-0.494494 -0.078143 0.09731 0 255 255
-0.485036 -0.075088 0.095402 0 255 255
-0.48527 -0.073563 0.095402 0 255 255
-0.485499 -0.072039 0.095402 0 255 255
-0.485723 -0.070513 0.095402 0 255 255
-0.49566 -0.070366 0.09731 0 255 255
-0.486156 -0.06746 0.095402 0 255 255
-0.496093 -0.067251 0.09731 0 255 255
-0.48657 -0.064404 0.095402 0 255 255
-0.477035 -0.061617 0.093494 0 255 255
-0.486965 -0.061345 0.095402 0 255 255
-0.467669 -0.057423 0.091586 0 255 255
-0.467847 -0.055953 0.091586 0 255 255
-0.477762 -0.055701 0.093494 0 255 255
-0.458427 -0.051988 0.089678 0 255 255
-0.468345 -0.051623 0.091586 0 255 255
-0.478265 -0.051196 0.093494 0 255 255
-0.478424 -0.049693 0.093494 0 255 255
-0.468811 -0.047207 0.091586 0 255 255
-0.478727 -0.046687 0.093494 0 255 255
-0.488644 -0.046104 0.095402 0 255 255
-0.479011 -0.043678 0.093494 0 255 255
-0.469367 -0.041312 0.091586 0 255 255
-0.479276 -0.040667 0.093494 0 255 255
-0.469617 -0.038362 0.091586 0 255 255
-0.469735 -0.036886 0.091586 0 255 255
-0.450272 -0.033935 0.08777 0 255 255
-0.460167 -0.033227 0.089678 0 255 255
-0.460269 -0.031782 0.089678 0 255 255
-0.470156 -0.031063 0.091586 0 255 255
-0.460455 -0.028969 0.089678 0 255 255
-0.460544 -0.027523 0.089678 0 255 255
-0.460628 -0.026076 0.089678 0 255 255
-0.460707 -0.024628 0.089678 0 255 255
-0.470586 -0.023674 0.091586 0 255 255
-0.470658 -0.022196 0.091586 0 255 255
-0.460919 -0.020285 0.089678 0 255 255
-0.460981 -0.018837 0.089678 0 255 255
-0.451228 -0.017019 0.08777 0 255 255
-0.451279 -0.015601 0.08777 0 255 255
-0.461138 -0.014492 0.089678 0 255 255
-0.461181 -0.013043 0.089678 0 255 255
-0.451406 -0.011347 0.08777 0 255 255
-0.471068 -0.010361 0.091586 0 255 255
-0.471098 -0.008881 0.091586 0 255 255
-0.480937 -0.007639 0.093494 0 255 255
-0.461328 -0.005878 0.089678 0 255 255
-0.47116 -0.004523 0.091586 0 255 255
-0.461356 -0.002979 0.089678 0 255 255
-0.461363 -0.00153 0.089678 0 255 255
-0.471182 -8.2e-05 0.091586 0 255 255
-0.461363 0.001369 0.089678 0 255 255
-0.471173 0.002878 0.091586 0 255 255
-0.461345 0.004268 0.089678 0 255 255
-0.471145 0.005839 0.091586 0 255 255
-0.46131 0.007166 0.089678 0 255 255
-0.471099 0.008799 0.091586 0 255 255
-0.461255 0.010065 0.089678 0 255 255
-0.461222 0.011514 0.089678 0 255 255
-0.470998 0.013156 0.091586 0 255 255
-0.470954 0.014636 0.091586 0 255 255
-0.480716 0.016451 0.093494 0 255 255
-0.480662 0.017961 0.093494 0 255 255
-0.470795 0.019074 0.091586 0 255 255
-0.48054 0.020981 0.093494 0 255 255
-0.480472 0.02249 0.093494 0 255 255
-0.490203 0.02449 0.095402 0 255 255
-0.480321 0.025509 0.093494 0 255 255
-0.480238 0.027018 0.093494 0 255 255
-0.480151 0.028526 0.093494 0 255 255
-0.489856 0.030647 0.095402 0 255 255
-0.470167 0.030899 0.091586 0 255 255
-0.479861 0.03305 0.093494 0 255 255
-0.479761 0.034474 0.093494 0 255 255
-0.47965 0.035981 0.093494 0 255 255
-0.479535 0.037488 0.093494 0 255 255
-0.479415 0.038994 0.093494 0 255 255
-0.489071 0.041326 0.095402 0 255 255
-0.47916 0.042005 0.093494 0 255 255
-0.479026 0.043511 0.093494 0 255 255
-0.469114 0.044096 0.091586 0 255 255
-0.468973 0.04557 0.091586 0 255 255
-0.478594 0.048023 0.093494 0 255 255
-0.478441 0.049527 0.093494 0 255 255
-0.488044 0.052071 0.095402 0 255 255
-0.468363 0.05146 0.091586 0 255 255
-0.477953 0.054033 0.093494 0 255 255
-0.477791 0.055451 0.093494 0 255 255
-0.477614 0.056952 0.093494 0 255 255
-0.467689 0.057259 0.091586 0 255 255
-0.467507 0.058728 0.091586 0 255 255
-0.477056 0.061451 0.093494 0 255 255
-0.467118 0.061746 0.091586 0 255 255
-0.466933 0.063132 0.091586 0 255 255
-0.476456 0.065944 0.093494 0 255 255
-0.476246 0.067441 0.093494 0 255 255
-0.466317 0.06753 0.091586 0 255 255
-0.466115 0.068913 0.091586 0 255 255
-0.465896 0.070377 0.091586 0 255 255
-0.465673 0.07184 0.091586 0 255 255
-0.465445 0.073303 0.091586 0 255 255
-0.465212 0.074765 0.091586 0 255 255
-0.464975 0.076226 0.091586 0 255 255
-0.464733 0.077686 0.091586 0 255 255
-0.48384 0.082444 0.095402 0 255 255
-0.464236 0.080605 0.091586 0 255 255
-0.46398 0.082063 0.091586 0 255 255
-0.473381 0.08526 0.093494 0 255 255
-0.473111 0.086747 0.093494 0 255 255
-0.453537 0.084631 0.089678 0 255 255
-0.482201 0.091549 0.095402 0 255 255
-0.472288 0.091119 0.093494 0 255 255
-0.472 0.092603 0.093494 0 255 255
-0.46208 0.092165 0.091586 0 255 255
-0.471408 0.095567 0.093494 0 255 255
-0.461491 0.095066 0.091586 0 255 255
-0.470799 0.098527 0.093494 0 255 255
-0.470487 0.100005 0.093494 0 255 255
-0.47017 0.101483 0.093494 0 255 255
-0.479438 0.105061 0.095402 0 255 255
-0.479106 0.106566 0.095402 0 255 255
-0.459636 0.103668 0.091586 0 255 255
-0.468877 0.107301 0.093494 0 255 255
-0.47808 0.111077 0.095402 0 255 255
-0.477729 0.112578 0.095402 0 255 255
-0.477393 0.113995 0.095402 0 255 255
-0.477032 0.115494 0.095402 0 255 255
-0.476667 0.116992 0.095402 0 255 255
-0.476297 0.118489 0.095402 0 255 255
-0.485441 0.122385 0.09731 0 255 255
-0.475543 0.12148 0.095402 0 255 255
-0.475159 0.122973 0.095402 0 255 255
-0.47477 0.124465 0.095402 0 255 255
-0.483887 0.128391 0.09731 0 255 255
-0.474001 0.127363 0.095402 0 255 255
-0.473599 0.128851 0.095402 0 255 255
-0.473192 0.130339 0.095402 0 255 255
-0.47278 0.131825 0.095402 0 255 255
-0.481811 0.135975 0.09731 0 255 255
-0.471942 0.134793 0.095402 0 255 255
-0.471516 0.136274 0.095402 0 255 255
-0.471086 0.137755 0.095402 0 255 255
-0.480064 0.142019 0.09731 0 255 255
-0.48902 0.146341 0.099218 0 255 255
-0.469767 0.142189 0.095402 0 255 255
-0.47873 0.146454 0.09731 0 255 255
-0.468889 0.145056 0.095402 0 255 255
-0.4778 0.149459 0.09731 0 255 255
-0.477328 0.150959 0.09731 0 255 255
-0.476851 0.152458 0.09731 0 255 255
-0.47637 0.153955 0.09731 0 255 255
-0.475884 0.155451 0.09731 0 255 255
-0.475393 0.156945 0.09731 0 255 255
-0.474898 0.158438 0.09731 0 255 255
-0.474398 0.159929 0.09731 0 255 255
-0.473921 0.161336 0.09731 0 255 255
-0.482695 0.166017 0.099218 0 255 255
-0.472898 0.164311 0.09731 0 255 255
-0.47238 0.165795 0.09731 0 255 255
-0.471857 0.167279 0.09731 0 255 255
-0.471329 0.16876 0.09731 0 255 255
-0.480028 0.173578 0.099218 0 255 255
-0.47948 0.175085 0.099218 0 255 255
-0.478927 0.176591 0.099218 0 255 255
-0.47837 0.178094 0.099218 0 255 255
-0.47784 0.179513 0.099218 0 255 255
-0.477273 0.181013 0.099218 0 255 255
-0.467535 0.179002 0.09731 0 255 255
-0.476127 0.184008 0.099218 0 255 255
-0.475546 0.185503 0.099218 0 255 255
-0.474961 0.186996 0.099218 0 255 255
-0.474371 0.188488 0.099218 0 255 255
-0.464666 0.186324 0.09731 0 255 255
-0.482277 0.195146 0.101126 0 255 255
-0.481662 0.196661 0.101126 0 255 255
-0.471999 0.194351 0.099218 0 255 255
-0.471386 0.195833 0.099218 0 255 255
-0.470769 0.197313 0.099218 0 255 255
-0.470147 0.198791 0.099218 0 255 255
-0.460491 0.196416 0.09731 0 255 255
-0.459871 0.197862 0.09731 0 255 255
-0.468252 0.203213 0.099218 0 255 255
-0.467611 0.204683 0.099218 0 255 255
-0.475983 0.210033 0.101126 0 255 255
-0.475321 0.211527 0.101126 0 255 255
-0.465698 0.209 0.099218 0 255 255
-0.482925 0.218557 0.103034 0 255 255
-0.455445 0.207847 0.09731 0 255 255
-0.472625 0.217483 0.101126 0 255 255
-0.463035 0.214835 0.099218 0 255 255
-0.462358 0.216289 0.099218 0 255 255
-0.470554 0.221928 0.101126 0 255 255
-0.469855 0.223405 0.101126 0 255 255
-0.460337 0.220557 0.099218 0 255 255
-0.459642 0.222002 0.099218 0 255 255
-0.458942 0.223445 0.099218 0 255 255
-0.458238 0.224885 0.099218 0 255 255
-0.457529 0.226324 0.099218 0 255 255
-0.448031 0.22338 0.09731 0 255 255
-0.473641 0.238009 0.103034 0 255 255
-0.464133 0.235061 0.101126 0 255 255
-0.45469 0.231976 0.099218 0 255 255
-0.462689 0.237892 0.101126 0 255 255
-0.461939 0.239344 0.101126 0 255 255
-0.452483 0.236251 0.099218 0 255 255
-0.451739 0.237671 0.099218 0 255 255
-0.45099 0.239089 0.099218 0 255 255
-0.458895 0.24513 0.101126 0 255 255
-0.449479 0.241918 0.099218 0 255 255
-0.448759 0.243251 0.099218 0 255 255
-0.456608 0.249364 0.101126 0 255 255
-0.455866 0.250718 0.101126 0 255 255
-0.463573 0.257068 0.103034 0 255 255
-0.454238 0.253657 0.101126 0 255 255
-0.453438 0.255082 0.101126 0 255 255
-0.452635 0.256506 0.101126 0 255 255
-0.451827 0.257926 0.101126 0 255 255
-0.451014 0.259345 0.101126 0 255 255
-0.458691 0.26568 0.103034 0 255 255
-0.457855 0.26712 0.103034 0 255 255
-0.457013 0.268557 0.103034 0 255 255
-0.456214 0.269912 0.103034 0 255 255
-0.438499 0.261294 0.099218 0 255 255
-0.446093 0.267722 0.101126 0 255 255
-0.445249 0.269122 0.101126 0 255 255
-0.444402 0.270519 0.101126 0 255 255
-0.451919 0.277044 0.103034 0 255 255
-0.459399 0.28362 0.104942 0 255 255
-0.441832 0.274696 0.101126 0 255 255
-0.449336 0.281213 0.103034 0 255 255
-0.440146 0.277389 0.101126 0 255 255
-0.447561 0.284031 0.103034 0 255 255
-0.446666 0.285435 0.103034 0 255 255
-0.445767 0.286837 0.103034 0 255 255
-0.453102 0.293574 0.104942 0 255 255
-0.452178 0.294996 0.104942 0 255 255
-0.443044 0.291025 0.103034 0 255 255
-0.442179 0.292339 0.103034 0 255 255
-0.449429 0.299166 0.104942 0 255 255
-0.432179 0.289646 0.101126 0 255 255
-0.439404 0.296493 0.103034 0 255 255
-0.44659 0.303388 0.104942 0 255 255
-0.42943 0.293707 0.101126 0 255 255
-0.436642 0.300545 0.103034 0 255 255
-0.435696 0.301915 0.103034 0 255 255
-0.442796 0.308899 0.104942 0 255 255
-0.441824 0.310288 0.104942 0 255 255
-0.424816 0.300341 0.101126 0 255 255
-0.431868 0.307367 0.103034 0 255 255
-0.4309 0.308722 0.103034 0 255 255
-0.429928 0.310074 0.103034 0 255 255
-0.429006 0.311348 0.103034 0 255 255
-0.428026 0.312694 0.103034 0 255 255
-0.419133 0.308222 0.101126 0 255 255
-0.418163 0.309537 0.101126 0 255 255
-0.42506 0.316714 0.103034 0 255 255
-0.41621 0.312159 0.101126 0 255 255
-0.407393 0.30755 0.099218 0 255 255
-0.41424 0.314767 0.101126 0 255 255
-0.421047 0.322031 0.103034 0 255 255
-0.396698 0.305388 0.09731 0 255 255
-0.411311 0.318586 0.101126 0 255 255
-0.410308 0.319876 0.101126 0 255 255
-0.409301 0.321164 0.101126 0 255 255
-0.40829 0.322448 0.101126 0 255 255
-0.407331 0.323658 0.101126 0 255 255
-0.39098 0.312674 0.09731 0 255 255
-0.40529 0.326211 0.101126 0 255 255
-0.396635 0.321304 0.099218 0 255 255
-0.41084 0.334954 0.103034 0 255 255
-0.402198 0.330016 0.101126 0 255 255
-0.386021 0.318777 0.09731 0 255 255
-0.385017 0.319988 0.09731 0 255 255
-0.391597 0.327426 0.099218 0 255 255
-0.390566 0.328654 0.099218 0 255 255
-0.389532 0.32988 0.099218 0 255 255
-0.388494 0.331102 0.099218 0 255 255
-0.387451 0.332321 0.099218 0 255 255
-0.378975 0.327122 0.09731 0 255 255
-0.377945 0.328311 0.09731 0 255 255
-0.362131 0.316575 0.093494 0 255 255
-0.383304 0.337096 0.099218 0 255 255
-0.389594 0.344805 0.101126 0 255 255
-0.381237 0.339432 0.099218 0 255 255
-0.365433 0.327654 0.095402 0 255 255
-0.371748 0.335312 0.09731 0 255 255
-0.363425 0.32988 0.095402 0 255 255
-0.362387 0.33102 0.095402 0 255 255
-0.368572 0.3388 0.09731 0 255 255
-0.367565 0.339892 0.09731 0 255 255
-0.366495 0.341045 0.09731 0 255 255
-0.365422 0.342195 0.09731 0 255 255
-0.357201 0.336609 0.095402 0 255 255
-0.349019 0.330975 0.093494 0 255 255
-0.362181 0.345624 0.09731 0 255 255
-0.361093 0.34676 0.09731 0 255 255
-0.360002 0.347893 0.09731 0 255 255
-0.358968 0.348959 0.09731 0 255 255
-0.350853 0.343221 0.095402 0 255 255
-0.356769 0.351208 0.09731 0 255 255
-0.34869 0.345419 0.095402 0 255 255
-0.361507 0.360373 0.099218 0 255 255
-0.360373 0.361507 0.099218 0 255 255
-0.359235 0.362637 0.099218 0 255 255
-0.351208 0.356769 0.09731 0 255 255
-0.363814 0.371904 0.101126 0 255 255
-0.342117 0.35193 0.095402 0 255 255
-0.34101 0.353003 0.095402 0 255 255
-0.353559 0.368173 0.099218 0 255 255
-0.352401 0.369282 0.099218 0 255 255
-0.344484 0.363265 0.09731 0 255 255
-0.350074 0.371489 0.099218 0 255 255
-0.355615 0.379752 0.101126 0 255 255
-0.341109 0.366436 0.09731 0 255 255
-0.333291 0.3603 0.095402 0 255 255
-0.332157 0.361345 0.095402 0 255 255
-0.350882 0.38413 0.101126 0 255 255
-0.32988 0.363425 0.095402 0 255 255
-0.341886 0.379038 0.099218 0 255 255
-0.334207 0.372742 0.09731 0 255 255
-0.333035 0.37379 0.09731 0 255 255
-0.331859 0.374834 0.09731 0 255 255
-0.324196 0.368505 0.095402 0 255 255
-0.323036 0.369521 0.095402 0 255 255
-0.321874 0.370535 0.095402 0 255 255
-0.320708 0.371544 0.095402 0 255 255
-0.319539 0.37255 0.095402 0 255 255
-0.312064 0.366026 0.093494 0 255 255
-0.317258 0.374495 0.095402 0 255 255
-0.322401 0.382999 0.09731 0 255 255
-0.321196 0.38401 0.09731 0 255 255
-0.319988 0.385017 0.09731 0 255 255
-0.318777 0.386021 0.09731 0 255 255
-0.317563 0.38702 0.09731 0 255 255
-0.322548 0.395624 0.099218 0 255 255
-0.309012 0.381326 0.095402 0 255 255
-0.307813 0.382295 0.095402 0 255 255
-0.300478 0.375595 0.093494 0 255 255
-0.305405 0.384222 0.095402 0 255 255
-0.298112 0.377476 0.093494 0 255 255
-0.290865 0.370688 0.091586 0 255 255
-0.295801 0.37929 0.093494 0 255 255
-0.294608 0.380217 0.093494 0 255 255
-0.293412 0.381141 0.093494 0 255 255
-0.286249 0.374264 0.091586 0 255 255
-0.285072 0.375161 0.091586 0 255 255
-0.283892 0.376055 0.091586 0 255 255
-0.27682 0.369092 0.089678 0 255 255
-0.281524 0.377831 0.091586 0 255 255
-0.27456 0.370776 0.089678 0 255 255
-0.279211 0.379544 0.091586 0 255 255
-0.272225 0.372494 0.089678 0 255 255
-0.271053 0.373347 0.089678 0 255 255
-0.269879 0.374197 0.089678 0 255 255
-0.262985 0.367063 0.08777 0 255 255
-0.267523 0.375885 0.089678 0 255 255
-0.260738 0.368663 0.08777 0 255 255
-0.259579 0.36948 0.08777 0 255 255
-0.264034 0.378343 0.089678 0 255 255
-0.257252 0.371104 0.08777 0 255 255
-0.261652 0.379995 0.089678 0 255 255
-0.25498 0.372668 0.08777 0 255 255
-0.253808 0.373467 0.08777 0 255 255
-0.252634 0.374263 0.08777 0 255 255
-0.256923 0.383208 0.089678 0 255 255
-0.255718 0.384013 0.089678 0 255 255
-0.25451 0.384815 0.089678 0 255 255
-0.237195 0.360957 0.083954 0 255 255
-0.241425 0.369921 0.085862 0 255 255
-0.240262 0.370678 0.085862 0 255 255
-0.244409 0.379685 0.08777 0 255 255
-0.227353 0.355639 0.082046 0 255 255
-0.226235 0.356351 0.082046 0 255 255
-0.230349 0.365364 0.083954 0 255 255
-0.23441 0.374406 0.085862 0 255 255
-0.222866 0.358468 0.082046 0 255 255
-0.242366 0.392577 0.089678 0 255 255
-0.225804 0.368191 0.083954 0 255 255
-0.085453 0.208978 0.043885 0 255 255
-0.077422 0.19105 0.040069 0 255 255
-0.07622 0.191533 0.040069 0 255 255
-0.075652 0.191758 0.040069 0 255 255
-0.078623 0.201138 0.041977 0 255 255
-0.07799 0.201384 0.041977 0 255 255
-0.076724 0.20187 0.041977 0 255 255
-0.076089 0.20211 0.041977 0 255 255
-0.07892 0.211532 0.043885 0 255 255
-0.074853 0.202571 0.041977 0 255 255
-0.070843 0.193587 0.040069 0 255 255
-0.070234 0.193808 0.040069 0 255 255
-0.069625 0.194028 0.040069 0 255 255
-0.071697 0.203709 0.041977 0 255 255
-0.067215 0.194876 0.040069 0 255 255
-0.238141 2.13653 0.41786 0 255 255
-0.232484 2.14703 0.419768 0 255 255
-0.170505 2.13315 0.415952 0 255 255
2.96125 27.5724 5.39021 0 255 255
3.04462 27.5337 5.38448 0 255 255
3.13332 27.5435 5.3883 0 255 255
3.27939 27.2991 5.34442 0 255 255
3.35558 27.2503 5.33678 0 255 255
3.47316 27.4929 5.38639 0 255 255
3.55597 27.4922 5.3883 0 255 255
3.62259 27.2953 5.35205 0 255 255
3.68187 27.0893 5.31389 0 255 255
3.77373 27.1262 5.32343 0 255 255
3.81689 26.8525 5.27191 0 255 255
3.88852 26.7529 5.25474 0 255 255
3.96102 26.6629 5.23947 0 255 255
4.0153 26.4562 5.20131 0 255 255
4.0969 26.4338 5.19941 0 255 255
4.5318 26.5121 5.22802 0 255 255
4.61505 26.4977 5.22802 0 255 255
4.69314 26.4541 5.2223 0 255 255
4.76813 26.4207 5.21848 0 255 255
4.57504 24.4701 4.83879 0 255 255
4.53081 23.8191 4.71285 0 255 255
4.60003 23.7759 4.70713 0 255 255
4.90334 24.5165 4.85977 0 255 255
4.92362 24.222 4.80444 0 255 255
4.9441 23.9373 4.75102 0 255 255
4.99496 23.8264 4.73194 0 255 255
5.0779 23.8691 4.74338 0 255 255
5.14871 23.8339 4.73957 0 255 255
5.21725 23.7888 4.73384 0 255 255
5.31115 23.8585 4.75102 0 255 255
5.38608 23.8417 4.75102 0 255 255
5.46535 23.8438 4.75483 0 255 255
5.5469 23.8552 4.76056 0 255 255
5.55196 23.5415 4.70141 0 255 255
5.60581 23.4581 4.68805 0 255 255
6.26121 25.491 5.1021 0 255 255
6.32759 25.08 5.02768 0 255 255
6.3407 24.8032 4.97616 0 255 255
7.96249 26.6247 5.40166 0 255 255
8.05177 26.6184 5.40547 0 255 255
8.08941 26.4428 5.37494 0 255 255
0.848979 2.23966 0.465561 0 255 255
1.88781 2.2602 0.572412 0 255 255
1.88227 2.23923 0.568595 0 255 255
1.89564 2.2408 0.570504 0 255 255
7.33893 6.50437 1.90613 0 255 255
7.33723 6.46182 1.90041 0 255 255
7.50179 6.48223 1.92712 0 255 255
2.91251 2.36187 0.728871 0 255 255
8.29567 6.4743 2.04542 0 255 255
8.25391 6.40008 2.03015 0 255 255
3.78643 2.40572 0.871974 0 255 255
20.6551 13.0324 4.7472 0 255 255
5.49505 3.30045 1.24595 0 255 255
5.49821 3.25682 1.24213 0 255 255
5.50842 3.23953 1.24213 0 255 255
4.72194 2.71743 1.05896 0 255 255
4.69636 2.6831 1.05133 0 255 255
4.74687 2.67363 1.05896 0 255 255
4.74668 2.65392 1.05705 0 255 255
4.75499 2.63899 1.05705 0 255 255
4.76326 2.62404 1.05705 0 255 255
4.75471 2.59881 1.05324 0 255 255
4.76285 2.58386 1.05324 0 255 255
4.78778 2.57903 1.05705 0 255 255
4.76123 2.54546 1.04942 0 255 255
4.69116 2.48909 1.03225 0 255 255
4.77631 2.49593 1.04751 0 255 255
4.8002 2.4712 1.04942 0 255 255
4.85164 2.47844 1.05896 0 255 255
4.83271 2.45071 1.05324 0 255 255
5.53339 2.73958 1.20016 0 255 255
4.87235 2.39327 1.05515 0 255 255
4.88729 2.36261 1.05515 0 255 255
5.55853 2.66559 1.19825 0 255 255
4.88431 2.32342 1.05133 0 255 255
4.86495 2.2955 1.0456 0 255 255
5.54739 2.59741 1.19062 0 255 255
4.93767 2.25543 1.05515 0 255 255
4.96262 2.24801 1.05896 0 255 255
5.04129 2.26459 1.07423 0 255 255
5.42499 2.41649 1.15436 0 255 255
4.99256 2.20511 1.06087 0 255 255
5.10698 2.23756 1.08377 0 255 255
5.07797 2.20585 1.07613 0 255 255
5.03979 2.17048 1.06659 0 255 255
5.41673 2.31266 1.14482 0 255 255
5.51437 2.3339 1.1639 0 255 255
5.25917 2.20643 1.10857 0 255 255
5.53799 2.30297 1.16581 0 255 255
5.46351 2.2519 1.14864 0 255 255
5.56144 2.27184 1.16772 0 255 255
5.25918 2.12912 1.10285 0 255 255
5.3114 2.13086 1.11239 0 255 255
5.52787 2.19757 1.15627 0 255 255
5.19681 2.04708 1.08567 0 255 255
5.13006 2.00219 1.07041 0 255 255
5.10886 1.97544 1.06468 0 255 255
5.57338 2.13496 1.16009 0 255 255
5.31068 1.99721 1.10285 0 255 255
5.12375 1.90856 1.06278 0 255 255
5.26786 1.94342 1.0914 0 255 255
5.58743 2.04139 1.15627 0 255 255
5.57242 1.99631 1.15055 0 255 255
5.58485 1.96126 1.15055 0 255 255
5.60026 1.94693 1.15245 0 255 255
5.59707 1.92613 1.15055 0 255 255
5.27787 1.79776 1.08377 0 255 255
5.56222 1.87622 1.14101 0 255 255
5.59222 1.84837 1.14482 0 255 255
5.64497 1.84506 1.15436 0 255 255
5.6414 1.8243 1.15245 0 255 255
5.69385 1.82152 1.162 0 255 255
5.76506 1.82436 1.17535 0 255 255
5.85507 1.83263 1.19252 0 255 255
5.96395 1.84615 1.21351 0 255 255
6.04481 1.85039 1.22878 0 255 255
6.15362 1.86375 1.24977 0 255 255
6.25348 1.87257 1.26885 0 255 255
6.35346 1.88077 1.28793 0 255 255
5.12515 1.49967 1.03797 0 255 255
6.58204 1.90354 1.33181 0 255 255
5.14391 1.47014 1.03988 0 255 255
8.88944 2.51043 1.79546 0 255 255
5.1625 1.44043 1.04179 0 255 255
5.18092 1.41054 1.0437 0 255 255
5.21377 1.4019 1.04942 0 255 255
5.21815 1.38552 1.04942 0 255 255
5.23197 1.37161 1.05133 0 255 255
5.25526 1.36008 1.05515 0 255 255
5.27853 1.34842 1.05896 0 255 255
5.29226 1.33423 1.06087 0 255 255
5.31547 1.32234 1.06468 0 255 255
8.9232 2.1901 1.78592 0 255 255
8.91058 2.15899 1.78211 0 255 255
8.91732 2.13099 1.78211 0 255 255
8.91442 2.10071 1.7802 0 255 255
8.92097 2.07269 1.7802 0 255 255
8.93701 2.04685 1.78211 0 255 255
8.92424 2.01444 1.77829 0 255 255
8.92095 1.98426 1.77638 0 255 255
8.93672 1.95833 1.77829 0 255 255
8.93324 1.92817 1.77638 0 255 255
8.93925 1.9001 1.77638 0 255 255
8.93524 1.87155 1.77448 0 255 255
8.94108 1.84347 1.77448 0 255 255
8.94682 1.81537 1.77448 0 255 255
8.94286 1.78533 1.77257 0 255 255
8.94842 1.75723 1.77257 0 255 255
8.9539 1.72911 1.77257 0 255 255
8.94964 1.69914 1.77066 0 255 255
8.95494 1.67102 1.77066 0 255 255
1.96003 0.359379 0.387332 0 255 255
1.99013 0.35844 0.393056 0 255 255
1.96225 0.347058 0.387332 0 255 255
1.95366 0.339211 0.385424 0 255 255
1.95472 0.333073 0.385424 0 255 255
1.94607 0.325311 0.383516 0 255 255
1.93739 0.317608 0.381608 0 255 255
1.919 0.308405 0.377792 0 255 255
1.91996 0.302374 0.377792 0 255 255
1.9112 0.294845 0.375884 0 255 255
1.91206 0.289172 0.375884 0 255 255
1.89354 0.28029 0.372067 0 255 255
1.89441 0.27434 0.372067 0 255 255
1.88555 0.26701 0.370159 0 255 255
1.88638 0.261085 0.370159 0 255 255
1.87746 0.253842 0.368251 0 255 255
1.88798 0.249228 0.370159 0 255 255
1.86928 0.240787 0.366343 0 255 255
1.86029 0.23369 0.364435 0 255 255
1.86101 0.227845 0.364435 0 255 255
1.86172 0.221996 0.364435 0 255 255
1.84291 0.213884 0.360619 0 255 255
1.84357 0.208093 0.360619 0 255 255
1.83446 0.20123 0.358711 0 255 255
1.82532 0.194426 0.356803 0 255 255
1.82592 0.18869 0.356803 0 255 255
1.8265 0.182953 0.356803 0 255 255
1.82707 0.177215 0.356803 0 255 255
1.81784 0.170556 0.354895 0 255 255
1.84404 0.217604 0.294194 0 255 255
1.83487 0.211004 0.292629 0 255 255
1.83552 0.205239 0.292629 0 255 255
1.83616 0.199471 0.292629 0 255 255
1.82695 0.192665 0.291064 0 255 255
1.82755 0.186925 0.291064 0 255 255
1.8183 0.180209 0.289499 0 255 255
1.81886 0.174496 0.289499 0 255 255
1.80956 0.167868 0.287935 0 255 255
1.80022 0.161614 0.28637 0 255 255
1.79087 0.155107 0.284805 0 255 255
1.8012 0.150301 0.28637 0 255 255
1.79181 0.143852 0.284805 0 255 255
1.79226 0.138221 0.284805 0 255 255
1.77298 0.131132 0.281675 0 255 255
1.77339 0.125563 0.281675 0 255 255
1.77377 0.119991 0.281675 0 255 255
1.77412 0.114727 0.281675 0 255 255
1.76461 0.108546 0.28011 0 255 255
1.75508 0.102427 0.278545 0 255 255
1.7554 0.096913 0.278545 0 255 255
1.74583 0.090884 0.276981 0 255 255
1.74611 0.085398 0.276981 0 255 255
1.7365 0.079461 0.275416 0 255 255
1.72687 0.073585 0.273851 0 255 255
1.7271 0.06816 0.273851 0 255 255
1.71743 0.062375 0.272286 0 255 255
1.72749 0.057306 0.273851 0 255 255
1.70792 0.051286 0.270721 0 255 255
1.70807 0.045921 0.270721 0 255 255
1.7082 0.040555 0.270721 0 255 255
1.69844 0.035281 0.269156 0 255 255
1.69855 0.029944 0.269156 0 255 255
1.69863 0.024608 0.269156 0 255 255
1.68882 0.01916 0.267591 0 255 255
1.69875 0.013936 0.269156 0 255 255
1.67903 0.008498 0.266026 0 255 255
1.67905 0.003223 0.266026 0 255 255
1.67905 -0.002051 0.266026 0 255 255
1.67904 -0.007033 0.266026 0 255 255
1.66913 -0.012236 0.264462 0 255 255
1.65921 -0.017376 0.262897 0 255 255
1.66902 -0.022723 0.264462 0 255 255
1.65907 -0.02809 0.262897 0 255 255
1.64909 -0.033104 0.261332 0 255 255
1.64899 -0.037997 0.261332 0 255 255
1.64886 -0.043177 0.261332 0 255 255
1.62898 -0.047493 0.258202 0 255 255
1.63868 -0.053216 0.259767 0 255 255
1.63851 -0.058363 0.259767 0 255 255
1.62845 -0.063128 0.258202 0 255 255
1.62826 -0.067959 0.258202 0 255 255
1.62803 -0.073074 0.258202 0 255 255
1.62779 -0.078189 0.258202 0 255 255
1.60781 -0.082292 0.255072 0 255 255
1.59768 -0.086807 0.253508 0 255 255
1.60726 -0.092393 0.255072 0 255 255
1.60697 -0.097442 0.255072 0 255 255
1.64608 -0.105005 0.261332 0 255 255
1.62603 -0.108856 0.258202 0 255 255
1.63554 -0.114655 0.259767 0 255 255
1.63517 -0.119792 0.259767 0 255 255
1.62493 -0.124176 0.258202 0 255 255
1.61469 -0.128497 0.256637 0 255 255
1.63397 -0.135198 0.259767 0 255 255
1.60404 -0.137514 0.255072 0 255 255
1.61343 -0.143427 0.256637 0 255 255
1.5933 -0.146684 0.253508 0 255 255
1.60267 -0.152626 0.255072 0 255 255
1.60218 -0.15766 0.255072 0 255 255
1.60168 -0.162692 0.255072 0 255 255
1.60116 -0.167723 0.255072 0 255 255
1.60062 -0.172753 0.255072 0 255 255
1.53136 -0.170146 0.244118 0 255 255
1.54063 -0.176077 0.245683 0 255 255
1.5401 -0.180648 0.245683 0 255 255
1.52972 -0.184304 0.244118 0 255 255
1.52913 -0.189108 0.244118 0 255 255
1.52853 -0.193911 0.244118 0 255 255
1.51812 -0.197439 0.242554 0 255 255
1.52728 -0.203512 0.244118 0 255 255
1.51685 -0.206973 0.242554 0 255 255
1.51619 -0.211738 0.242554 0 255 255
1.51552 -0.2165 0.242554 0 255 255
1.51483 -0.22126 0.242554 0 255 255
1.51413 -0.226018 0.242554 0 255 255
1.50365 -0.229285 0.240989 0 255 255
1.50292 -0.234007 0.240989 0 255 255
1.50218 -0.238728 0.240989 0 255 255
1.50146 -0.243184 0.240989 0 255 255
1.49094 -0.24629 0.239424 0 255 255
1.4999 -0.252613 0.240989 0 255 255
1.48937 -0.255653 0.239424 0 255 255
1.47883 -0.258629 0.237859 0 255 255
1.49746 -0.266738 0.240989 0 255 255
1.51605 -0.274966 0.244118 0 255 255
1.51518 -0.279727 0.244118 0 255 255
1.51429 -0.284486 0.244118 0 255 255
1.51339 -0.289242 0.244118 0 255 255
1.50278 -0.29211 0.242554 0 255 255
1.50185 -0.29683 0.242554 0 255 255
1.50091 -0.301547 0.242554 0 255 255
1.49996 -0.30626 0.242554 0 255 255
1.49899 -0.310971 0.242554 0 255 255
1.498 -0.315679 0.242554 0 255 255
1.4874 -0.318057 0.240989 0 255 255
1.47674 -0.320632 0.239424 0 255 255
1.47573 -0.32527 0.239424 0 255 255
1.46506 -0.327748 0.237859 0 255 255
