ply
format ascii 1.0
element vertex 1263
property float x
property float y
property float z
property uchar red
property uchar green
property uchar blue
end_header
3.342 3.92406 -1.19033 0 255 255
3.35431 3.91354 -1.19033 0 255 255
3.36659 3.90298 -1.19033 0 255 255
3.37883 3.89239 -1.19033 0 255 255
3.39746 3.88909 -1.19258 0 255 255
3.39612 3.86436 -1.18808 0 255 255
3.40824 3.85367 -1.18808 0 255 255
3.41385 3.83566 -1.18583 0 255 255
3.42588 3.82492 -1.18583 0 255 255
3.43136 3.8069 -1.18358 0 255 255
3.4433 3.7961 -1.18358 0 255 255
3.44798 3.77867 -1.18133 0 255 255
3.46643 3.775 -1.18358 0 255 255
3.46504 3.74978 -1.17908 0 255 255
3.47681 3.73887 -1.17908 0 255 255
3.47522 3.7137 -1.17458 0 255 255
3.50023 3.71695 -1.17908 0 255 255
3.50519 3.69887 -1.17683 0 255 255
3.51007 3.68079 -1.17458 0 255 255
3.52161 3.66974 -1.17458 0 255 255
3.53312 3.65866 -1.17458 0 255 255
3.55139 3.65453 -1.17683 0 255 255
3.54923 3.62942 -1.17233 0 255 255
3.54695 3.60436 -1.16783 0 255 255
3.56511 3.60013 -1.17008 0 255 255
3.57577 3.58953 -1.17008 0 255 255
3.58014 3.5714 -1.16783 0 255 255
3.5775 3.54642 -1.16333 0 255 255
3.57474 3.52148 -1.15883 0 255 255
3.57186 3.4966 -1.15433 0 255 255
3.58283 3.48536 -1.15433 0 255 255
3.57975 3.46055 -1.14983 0 255 255
3.59763 3.45603 -1.15208 0 255 255
3.60787 3.44534 -1.15208 0 255 255
3.61161 3.42728 -1.14983 0 255 255
3.62235 3.41592 -1.14983 0 255 255
3.61885 3.3912 -1.14533 0 255 255
3.62235 3.37317 -1.14308 0 255 255
3.63293 3.36178 -1.14308 0 255 255
3.63631 3.34375 -1.14083 0 255 255
2.50269 2.27328 -0.780804 0 255 255
3.72494 3.3622 -1.15883 0 255 255
3.72098 3.33747 -1.15433 0 255 255
3.72417 3.31928 -1.15208 0 255 255
3.734 3.30822 -1.15208 0 255 255
3.74496 3.29582 -1.15208 0 255 255
3.73329 3.26479 -1.14533 0 255 255
3.75824 3.26583 -1.14983 0 255 255
3.76791 3.25467 -1.14983 0 255 255
3.77072 3.23647 -1.14758 0 255 255
3.77346 3.21828 -1.14533 0 255 255
3.78355 3.20641 -1.14533 0 255 255
3.78615 3.18823 -1.14308 0 255 255
3.78867 3.17007 -1.14083 0 255 255
3.8136 3.17061 -1.14533 0 255 255
3.92658 2.96534 -1.13633 0 255 255
3.91249 2.93545 -1.12958 0 255 255
3.92951 2.92896 -1.13183 0 255 255
3.9407 2.88099 -1.12733 0 255 255
3.94144 2.62464 -1.09358 0 255 255
3.94154 2.60687 -1.09133 0 255 255
3.94926 2.59516 -1.09133 0 255 255
3.94107 2.57209 -1.08683 0 255 255
3.94096 2.5544 -1.08458 0 255 255
3.92438 2.52619 -1.07782 0 255 255
3.86663 2.47186 -1.05982 0 255 255
3.86614 2.45448 -1.05757 0 255 255
3.99517 2.45016 -1.08232 0 255 255
4.00285 2.4376 -1.08232 0 255 255
4.00215 2.41997 -1.08008 0 255 255
4.00138 2.40237 -1.07782 0 255 255
4.01727 2.39477 -1.08008 0 255 255
4.02478 2.38214 -1.08008 0 255 255
4.03183 2.37019 -1.08008 0 255 255
4.03925 2.35751 -1.08008 0 255 255
4.04664 2.34481 -1.08008 0 255 255
4.07088 2.3418 -1.08458 0 255 255
4.05283 2.31451 -1.07782 0 255 255
4.0177 2.27774 -1.06657 0 255 255
4.02484 2.2651 -1.06657 0 255 255
4.03193 2.25245 -1.06657 0 255 255
4.03047 2.23504 -1.06432 0 255 255
4.0204 2.21298 -1.05982 0 255 255
4.03588 2.20501 -1.06207 0 255 255
4.04279 2.19232 -1.06207 0 255 255
4.04966 2.17961 -1.06207 0 255 255
4.04789 2.16228 -1.05982 0 255 255
4.0629 2.15482 -1.06207 0 255 255
4.07827 2.14659 -1.06432 0 255 255
4.09363 2.13828 -1.06657 0 255 255
4.10033 2.12541 -1.06657 0 255 255
4.09832 2.10806 -1.06432 0 255 255
4.1136 2.0996 -1.06657 0 255 255
4.12887 2.09107 -1.06882 0 255 255
4.12671 2.07371 -1.06657 0 255 255
4.14156 2.06581 -1.06882 0 255 255
4.15676 2.05711 -1.07107 0 255 255
4.17195 2.04834 -1.07333 0 255 255
4.19589 2.04375 -1.07782 0 255 255
4.22861 2.04328 -1.08458 0 255 255
4.22622 2.02577 -1.08232 0 255 255
4.22376 2.0083 -1.08008 0 255 255
4.23005 1.99502 -1.08008 0 255 255
4.25395 1.98998 -1.08458 0 255 255
4.25134 1.9725 -1.08232 0 255 255
4.25717 1.95988 -1.08232 0 255 255
4.27217 1.95055 -1.08458 0 255 255
4.27828 1.93711 -1.08458 0 255 255
4.27546 1.91967 -1.08232 0 255 255
4.29927 1.91416 -1.08683 0 255 255
4.29635 1.89671 -1.08458 0 255 255
4.30228 1.8832 -1.08458 0 255 255
4.30818 1.86967 -1.08458 0 255 255
4.32298 1.85998 -1.08683 0 255 255
4.3288 1.84639 -1.08683 0 255 255
4.33458 1.83278 -1.08683 0 255 255
4.34931 1.82292 -1.08908 0 255 255
4.35501 1.80925 -1.08908 0 255 255
4.36067 1.79556 -1.08908 0 255 255
4.35696 1.77893 -1.08683 0 255 255
4.36253 1.76523 -1.08683 0 255 255
4.36805 1.75152 -1.08683 0 255 255
4.38259 1.74139 -1.08908 0 255 255
4.3699 1.72047 -1.08458 0 255 255
4.39344 1.71381 -1.08908 0 255 255
4.38972 1.69649 -1.08683 0 255 255
4.39503 1.68269 -1.08683 0 255 255
4.40029 1.66888 -1.08683 0 255 255
4.40551 1.65505 -1.08683 0 255 255
4.42867 1.64876 -1.09133 0 255 255
4.42468 1.63147 -1.08908 0 255 255
4.42978 1.61757 -1.08908 0 255 255
4.42568 1.60033 -1.08683 0 255 255
4.44903 1.59299 -1.09133 0 255 255
4.45402 1.579 -1.09133 0 255 255
4.44976 1.56177 -1.08908 0 255 255
4.46385 1.55098 -1.09133 0 255 255
4.45949 1.53378 -1.08908 0 255 255
4.46428 1.51977 -1.08908 0 255 255
4.46904 1.50574 -1.08908 0 255 255
4.48299 1.49477 -1.09133 0 255 255
4.48766 1.48068 -1.09133 0 255 255
4.52008 1.47564 -1.09808 0 255 255
1.34435 0.434473 -0.326273 0 255 255
1.37355 0.439149 -0.333023 0 255 255
1.31918 0.417203 -0.319522 0 255 255
1.31119 0.410148 -0.317272 0 255 255
1.31247 0.406027 -0.317272 0 255 255
1.31374 0.401902 -0.317272 0 255 255
1.30567 0.394951 -0.315022 0 255 255
1.31624 0.393639 -0.317272 0 255 255
1.30813 0.38674 -0.315022 0 255 255
1.30933 0.382628 -0.315022 0 255 255
1.31046 0.378742 -0.315022 0 255 255
1.32102 0.377299 -0.317272 0 255 255
1.31282 0.3705 -0.315022 0 255 255
1.32336 0.368991 -0.317272 0 255 255
1.32451 0.364832 -0.317272 0 255 255
1.32565 0.360669 -0.317272 0 255 255
1.31737 0.353974 -0.315022 0 255 255
1.30906 0.347335 -0.312772 0 255 255
1.31957 0.34569 -0.315022 0 255 255
1.33008 0.343982 -0.317272 0 255 255
1.32171 0.337392 -0.315022 0 255 255
1.32277 0.333238 -0.315022 0 255 255
1.31435 0.32673 -0.312772 0 255 255
1.32483 0.324921 -0.315022 0 255 255
1.31638 0.318465 -0.312772 0 255 255
1.31737 0.314328 -0.312772 0 255 255
1.32784 0.31242 -0.315022 0 255 255
1.31932 0.306045 -0.312772 0 255 255
1.32022 0.302129 -0.312772 0 255 255
1.32117 0.29798 -0.312772 0 255 255
1.3221 0.293828 -0.312772 0 255 255
1.32301 0.289673 -0.312772 0 255 255
1.33344 0.287569 -0.315022 0 255 255
1.33434 0.283378 -0.315022 0 255 255
1.32568 0.277192 -0.312772 0 255 255
1.32655 0.273025 -0.312772 0 255 255
1.3274 0.268857 -0.312772 0 255 255
1.34735 0.268493 -0.317272 0 255 255
1.37687 0.269881 -0.324023 0 255 255
1.37771 0.265555 -0.324023 0 255 255
1.40726 0.266668 -0.330773 0 255 255
1.36094 0.249288 -0.319522 0 255 255
1.39282 0.236829 -0.326273 0 255 255
1.39356 0.232452 -0.326273 0 255 255
1.3764 0.216523 -0.321772 0 255 255
1.3867 0.213682 -0.324023 0 255 255
1.39893 0.197602 -0.326273 0 255 255
1.37059 0.189209 -0.319522 0 255 255
1.37117 0.184902 -0.319522 0 255 255
1.38138 0.182107 -0.321772 0 255 255
1.38194 0.177767 -0.321772 0 255 255
1.36316 0.170998 -0.317272 0 255 255
1.34434 0.16435 -0.312772 0 255 255
1.33518 0.158974 -0.310522 0 255 255
1.32599 0.153657 -0.308271 0 255 255
1.31679 0.1484 -0.306021 0 255 255
1.31725 0.144262 -0.306021 0 255 255
1.32738 0.141153 -0.308271 0 255 255
1.32782 0.136982 -0.308271 0 255 255
1.32824 0.13281 -0.308271 0 255 255
1.31896 0.127698 -0.306021 0 255 255
1.31935 0.123554 -0.306021 0 255 255
1.32944 0.120286 -0.308271 0 255 255
1.33951 0.116956 -0.310522 0 255 255
1.33017 0.111931 -0.308271 0 255 255
1.33051 0.107752 -0.308271 0 255 255
1.32113 0.102815 -0.306021 0 255 255
1.34086 0.100349 -0.310522 0 255 255
1.34117 0.096137 -0.310522 0 255 255
1.33174 0.091256 -0.308271 0 255 255
1.33202 0.087072 -0.308271 0 255 255
1.32257 0.082282 -0.306021 0 255 255
1.32282 0.078126 -0.306021 0 255 255
1.32306 0.073971 -0.306021 0 255 255
1.33301 0.070327 -0.308271 0 255 255
1.34296 0.066622 -0.310522 0 255 255
1.33343 0.06195 -0.308271 0 255 255
1.32388 0.057339 -0.306021 0 255 255
1.32405 0.05318 -0.306021 0 255 255
1.3729 0.050822 -0.317272 0 255 255
1.39253 0.047168 -0.321772 0 255 255
1.39267 0.042793 -0.321772 0 255 255
1.41228 0.038955 -0.326273 0 255 255
1.38317 0.033804 -0.319522 0 255 255
1.38327 0.029458 -0.319522 0 255 255
1.38336 0.025113 -0.319522 0 255 255
1.37369 0.02062 -0.317272 0 255 255
1.38348 0.016662 -0.319522 0 255 255
1.40302 0.012489 -0.324023 0 255 255
1.37382 0.007913 -0.317272 0 255 255
1.40307 0.003673 -0.324023 0 255 255
1.38358 -0.000724 -0.319522 0 255 255
1.40306 -0.005143 -0.324023 0 255 255
1.37381 -0.009351 -0.317272 0 255 255
1.403 -0.014203 -0.324023 0 255 255
1.37372 -0.018223 -0.317272 0 255 255
1.3834 -0.022698 -0.319522 0 255 255
1.39307 -0.026991 -0.321772 0 255 255
1.38323 -0.031148 -0.319522 0 255 255
1.39287 -0.035744 -0.321772 0 255 255
1.39275 -0.040119 -0.321772 0 255 255
1.39262 -0.044495 -0.321772 0 255 255
1.373 -0.048186 -0.317272 0 255 255
1.33389 -0.05101 -0.308271 0 255 255
1.33372 -0.0552 -0.308271 0 255 255
1.34328 -0.059823 -0.310522 0 255 255
1.34308 -0.064043 -0.310522 0 255 255
1.34288 -0.068262 -0.310522 0 255 255
1.34265 -0.072481 -0.310522 0 255 255
1.34242 -0.076698 -0.310522 0 255 255
1.34217 -0.080915 -0.310522 0 255 255
1.34193 -0.084897 -0.310522 0 255 255
1.34165 -0.089113 -0.310522 0 255 255
1.34137 -0.093327 -0.310522 0 255 255
1.35079 -0.098247 -0.312772 0 255 255
1.34075 -0.101753 -0.310522 0 255 255
1.35014 -0.106733 -0.312772 0 255 255
1.33038 -0.109377 -0.308271 0 255 255
1.33003 -0.113556 -0.308271 0 255 255
1.33937 -0.118593 -0.310522 0 255 255
1.33899 -0.1228 -0.310522 0 255 255
1.3386 -0.127006 -0.310522 0 255 255
1.34789 -0.132162 -0.312772 0 255 255
1.33777 -0.135414 -0.310522 0 255 255
1.34703 -0.140628 -0.312772 0 255 255
1.34658 -0.144859 -0.312772 0 255 255
1.33644 -0.148016 -0.310522 0 255 255
1.35533 -0.15442 -0.315022 0 255 255
1.33548 -0.15641 -0.310522 0 255 255
1.36403 -0.163859 -0.317272 0 255 255
1.36351 -0.168143 -0.317272 0 255 255
1.39198 -0.176094 -0.324023 0 255 255
1.38175 -0.179213 -0.321772 0 255 255
1.38115 -0.183794 -0.321772 0 255 255
1.39022 -0.189448 -0.324023 0 255 255
1.38 -0.192228 -0.321772 0 255 255
1.38904 -0.197937 -0.324023 0 255 255
1.38841 -0.2023 -0.324023 0 255 255
1.39741 -0.208096 -0.326273 0 255 255
1.39674 -0.212485 -0.326273 0 255 255
1.4057 -0.218367 -0.328523 0 255 255
1.41463 -0.224308 -0.330773 0 255 255
1.42354 -0.230308 -0.333023 0 255 255
1.39396 -0.23002 -0.326273 0 255 255
1.41245 -0.237631 -0.330773 0 255 255
1.39249 -0.238773 -0.326273 0 255 255
1.39173 -0.243147 -0.326273 0 255 255
1.39096 -0.247518 -0.326273 0 255 255
1.39018 -0.251887 -0.326273 0 255 255
1.39896 -0.25802 -0.328523 0 255 255
1.4173 -0.266008 -0.333023 0 255 255
1.38774 -0.264977 -0.326273 0 255 255
1.34864 -0.261906 -0.317272 0 255 255
1.34782 -0.266141 -0.317272 0 255 255
1.34697 -0.270374 -0.317272 0 255 255
1.34612 -0.274605 -0.317272 0 255 255
1.34525 -0.278832 -0.317272 0 255 255
1.34437 -0.283057 -0.317272 0 255 255
1.353 -0.289317 -0.319522 0 255 255
1.35208 -0.293566 -0.319522 0 255 255
1.35115 -0.297812 -0.319522 0 255 255
1.35021 -0.302055 -0.319522 0 255 255
1.34925 -0.306296 -0.319522 0 255 255
1.34829 -0.310533 -0.319522 0 255 255
1.33782 -0.31255 -0.317272 0 255 255
1.35579 -0.321245 -0.321772 0 255 255
1.3453 -0.323226 -0.319522 0 255 255
1.35374 -0.329757 -0.321772 0 255 255
1.3527 -0.334008 -0.321772 0 255 255
1.35164 -0.338256 -0.321772 0 255 255
1.36946 -0.347291 -0.326273 0 255 255
1.34949 -0.346742 -0.321772 0 255 255
1.35783 -0.353434 -0.324023 0 255 255
1.34729 -0.355214 -0.321772 0 255 255
1.34617 -0.359445 -0.321772 0 255 255
1.34509 -0.363438 -0.321772 0 255 255
1.38154 -0.377946 -0.330773 0 255 255
1.39912 -0.387485 -0.335273 0 255 255
1.40728 -0.394509 -0.337524 0 255 255
1.40603 -0.398928 -0.337524 0 255 255
1.40478 -0.403343 -0.337524 0 255 255
1.42214 -0.41344 -0.342024 0 255 255
1.41149 -0.415156 -0.339774 0 255 255
1.42893 -0.424896 -0.344274 0 255 255
1.40893 -0.42377 -0.339774 0 255 255
1.39827 -0.425359 -0.337524 0 255 255
1.41555 -0.43548 -0.342024 0 255 255
1.40487 -0.43703 -0.339774 0 255 255
1.43137 -0.450212 -0.346524 0 255 255
1.4021 -0.445849 -0.339774 0 255 255
1.40996 -0.453233 -0.342024 0 255 255
1.40853 -0.45766 -0.342024 0 255 255
1.40709 -0.462083 -0.342024 0 255 255
1.41488 -0.46957 -0.344274 0 255 255
1.40416 -0.470915 -0.342024 0 255 255
1.4119 -0.478451 -0.344274 0 255 255
1.40117 -0.479728 -0.342024 0 255 255
1.37203 -0.474573 -0.335273 0 255 255
1.37054 -0.478881 -0.335273 0 255 255
1.36902 -0.483184 -0.335273 0 255 255
1.3675 -0.487482 -0.335273 0 255 255
1.37513 -0.495077 -0.337524 0 255 255
1.36441 -0.496065 -0.335273 0 255 255
1.37199 -0.503707 -0.337524 0 255 255
1.3704 -0.508015 -0.337524 0 255 255
1.36871 -0.512556 -0.337524 0 255 255
1.35798 -0.513408 -0.335273 0 255 255
1.35645 -0.517435 -0.335273 0 255 255
1.35482 -0.521694 -0.335273 0 255 255
2.7245 -1.05895 -0.675047 0 255 255
2.65767 -1.0426 -0.659296 0 255 255
2.66344 -1.05453 -0.661546 0 255 255
2.66916 -1.06651 -0.663796 0 255 255
2.6658 -1.07489 -0.663796 0 255 255
2.68027 -1.09107 -0.668297 0 255 255
2.66782 -1.09578 -0.666046 0 255 255
2.65536 -1.10043 -0.663796 0 255 255
2.65208 -1.1083 -0.663796 0 255 255
2.65757 -1.12041 -0.666046 0 255 255
2.68093 -1.1402 -0.672797 0 255 255
2.7219 -1.1683 -0.684048 0 255 255
2.71822 -1.17684 -0.684048 0 255 255
2.73237 -1.19317 -0.688548 0 255 255
2.73752 -1.20568 -0.690798 0 255 255
2.73372 -1.21427 -0.690798 0 255 255
2.74768 -1.23082 -0.695298 0 255 255
2.73492 -1.23544 -0.693048 0 255 255
2.74011 -1.24758 -0.695298 0 255 255
2.73618 -1.25619 -0.695298 0 255 255
2.732 -1.26525 -0.695298 0 255 255
2.72801 -1.27383 -0.695298 0 255 255
2.73281 -1.28654 -0.697549 0 255 255
2.72875 -1.29512 -0.697549 0 255 255
2.72467 -1.30369 -0.697549 0 255 255
2.72934 -1.31648 -0.699799 0 255 255
2.72519 -1.32504 -0.699799 0 255 255
2.72976 -1.33789 -0.702049 0 255 255
2.73451 -1.35029 -0.704299 0 255 255
2.73874 -1.3637 -0.706549 0 255 255
2.73445 -1.3723 -0.706549 0 255 255
2.73882 -1.38528 -0.708799 0 255 255
2.72577 -1.38945 -0.706549 0 255 255
2.73006 -1.40246 -0.708799 0 255 255
2.72564 -1.41103 -0.708799 0 255 255
2.72983 -1.42409 -0.711049 0 255 255
2.71672 -1.42812 -0.708799 0 255 255
2.72083 -1.44121 -0.711049 0 255 255
2.72488 -1.45434 -0.7133 0 255 255
2.72888 -1.46751 -0.71555 0 255 255
2.72426 -1.47608 -0.71555 0 255 255
2.71961 -1.48463 -0.71555 0 255 255
2.71493 -1.49316 -0.71555 0 255 255
2.71875 -1.50641 -0.7178 0 255 255
2.72251 -1.51969 -0.72005 0 255 255
2.71772 -1.52824 -0.72005 0 255 255
2.71291 -1.53677 -0.72005 0 255 255
2.71653 -1.55011 -0.7223 0 255 255
2.72009 -1.56349 -0.72455 0 255 255
4.19395 -2.51699 -1.12958 0 255 255
4.17768 -2.52511 -1.12733 0 255 255
4.17805 -2.54329 -1.12958 0 255 255
4.17004 -2.55641 -1.12958 0 255 255
4.14541 -2.55926 -1.12508 0 255 255
4.16217 -2.5877 -1.13183 0 255 255
4.14582 -2.63204 -1.13408 0 255 255
4.12921 -2.65803 -1.13408 0 255 255
4.10448 -2.66039 -1.12958 0 255 255
4.08794 -2.66795 -1.12733 0 255 255
4.0714 -2.67543 -1.12508 0 255 255
3.65668 -2.41938 -1.01257 0 255 255
3.53553 -2.35523 -0.981068 0 255 255
3.52812 -2.36633 -0.981068 0 255 255
3.48836 -2.35559 -0.972068 0 255 255
3.42454 -2.32819 -0.956317 0 255 255
3.37701 -2.31142 -0.945066 0 255 255
3.32962 -2.29437 -0.933815 0 255 255
3.29837 -2.28816 -0.927065 0 255 255
3.25123 -2.27062 -0.915814 0 255 255
3.22017 -2.26401 -0.909063 0 255 255
3.17327 -2.24597 -0.897813 0 255 255
3.12652 -2.22766 -0.886562 0 255 255
3.11159 -2.23179 -0.884312 0 255 255
3.09666 -2.23585 -0.882061 0 255 255
3.10539 -2.25703 -0.886562 0 255 255
3.09828 -2.26677 -0.886562 0 255 255
3.09115 -2.27649 -0.886562 0 255 255
3.08398 -2.28619 -0.886562 0 255 255
3.08459 -2.3017 -0.888812 0 255 255
3.06915 -2.30606 -0.886562 0 255 255
3.06189 -2.31569 -0.886562 0 255 255
3.0546 -2.3253 -0.886562 0 255 255
3.05502 -2.34081 -0.888812 0 255 255
3.03222 -2.3385 -0.884312 0 255 255
3.03255 -2.35398 -0.886562 0 255 255
3.02514 -2.3635 -0.886562 0 255 255
3.01004 -2.36697 -0.884312 0 255 255
2.99495 -2.37037 -0.882061 0 255 255
2.98749 -2.37976 -0.882061 0 255 255
2.98 -2.38914 -0.882061 0 255 255
2.9649 -2.39237 -0.879811 0 255 255
2.9498 -2.39553 -0.877561 0 255 255
2.94226 -2.40478 -0.877561 0 255 255
2.93469 -2.41402 -0.877561 0 255 255
2.91959 -2.41701 -0.875311 0 255 255
2.91198 -2.42617 -0.875311 0 255 255
2.90434 -2.43531 -0.875311 0 255 255
2.88179 -2.43185 -0.870811 0 255 255
2.87413 -2.44089 -0.870811 0 255 255
2.86645 -2.44991 -0.870811 0 255 255
2.85874 -2.4589 -0.870811 0 255 255
2.84363 -2.46149 -0.86856 0 255 255
2.83589 -2.47042 -0.86856 0 255 255
2.82811 -2.47931 -0.86856 0 255 255
2.82031 -2.48819 -0.86856 0 255 255
2.7979 -2.4841 -0.86406 0 255 255
2.80462 -2.50586 -0.86856 0 255 255
2.79673 -2.51466 -0.86856 0 255 255
2.78115 -2.51738 -0.86631 0 255 255
2.77323 -2.5261 -0.86631 0 255 255
2.75854 -2.52774 -0.86406 0 255 255
2.75014 -2.53687 -0.86406 0 255 255
2.75644 -2.55876 -0.86856 0 255 255
2.74127 -2.56075 -0.86631 0 255 255
2.74031 -2.57602 -0.86856 0 255 255
2.7322 -2.58462 -0.86856 0 255 255
2.73113 -2.59991 -0.870811 0 255 255
2.71591 -2.60174 -0.86856 0 255 255
2.72175 -2.62378 -0.873061 0 255 255
2.7135 -2.63232 -0.873061 0 255 255
2.71916 -2.65444 -0.877561 0 255 255
2.71081 -2.66297 -0.877561 0 255 255
2.70243 -2.67147 -0.877561 0 255 255
2.69402 -2.67995 -0.877561 0 255 255
2.93551 -2.97574 -0.965317 0 255 255
2.93979 -2.99887 -0.969818 0 255 255
2.91675 -2.99413 -0.965317 0 255 255
2.91411 -3.01028 -0.967567 0 255 255
2.91139 -3.02644 -0.969818 0 255 255
2.89514 -3.02853 -0.967567 0 255 255
2.8985 -3.05224 -0.972068 0 255 255
2.88639 -3.11702 -0.981068 0 255 255
2.89638 -3.14758 -0.987819 0 255 255
2.86675 -3.1351 -0.981068 0 255 255
2.86344 -3.1513 -0.983318 0 255 255
2.84047 -3.14581 -0.978818 0 255 255
2.83057 -3.15472 -0.978818 0 255 255
2.81416 -3.15633 -0.976568 0 255 255
2.81069 -3.17245 -0.978818 0 255 255
2.81359 -3.19589 -0.983318 0 255 255
2.81637 -3.21938 -0.987819 0 255 255
2.79985 -3.22086 -0.985569 0 255 255
2.82156 -3.2665 -0.996819 0 255 255
2.83032 -3.29753 -1.00357 0 255 255
3.04263 -3.59028 -1.08683 0 255 255
3.03761 -3.60728 -1.08908 0 255 255
3.01376 -3.60186 -1.08458 0 255 255
3.0018 -3.61183 -1.08458 0 255 255
2.99043 -3.62124 -1.08458 0 255 255
2.95369 -3.60101 -1.07557 0 255 255
2.93068 -3.59465 -1.07107 0 255 255
2.87031 -3.54327 -1.05307 0 255 255
2.91415 -3.62058 -1.07333 0 255 255
2.92101 -3.65255 -1.08008 0 255 255
2.91008 -3.68613 -1.08458 0 255 255
2.9045 -3.70292 -1.08683 0 255 255
2.88686 -3.70434 -1.08458 0 255 255
2.87521 -3.71339 -1.08458 0 255 255
2.86353 -3.7224 -1.08458 0 255 255
2.83419 -3.73256 -1.08232 0 255 255
2.89287 -3.83479 -1.10933 0 255 255
2.92687 -3.90674 -1.12733 0 255 255
2.90877 -3.9081 -1.12508 0 255 255
2.90227 -3.92506 -1.12733 0 255 255
2.88484 -3.9258 -1.12508 0 255 255
2.87181 -3.93534 -1.12508 0 255 255
2.85943 -3.94435 -1.12508 0 255 255
2.84702 -3.95331 -1.12508 0 255 255
2.84026 -3.97016 -1.12733 0 255 255
2.82213 -3.97112 -1.12508 0 255 255
2.80964 -3.97997 -1.12508 0 255 255
2.79712 -3.98877 -1.12508 0 255 255
2.77901 -3.98955 -1.12283 0 255 255
2.76646 -3.99826 -1.12283 0 255 255
2.76492 -4.02299 -1.12733 0 255 255
2.74678 -4.02361 -1.12508 0 255 255
2.73412 -4.03222 -1.12508 0 255 255
2.72144 -4.04079 -1.12508 0 255 255
2.71415 -4.05741 -1.12733 0 255 255
2.696 -4.05781 -1.12508 0 255 255
2.68324 -4.06626 -1.12508 0 255 255
2.6644 -4.06698 -1.12283 0 255 255
2.65161 -4.07533 -1.12283 0 255 255
2.56806 -4.00171 -1.09808 0 255 255
2.51882 -3.95224 -1.08232 0 255 255
2.51161 -3.96837 -1.08458 0 255 255
2.49913 -3.97624 -1.08458 0 255 255
2.49178 -3.99233 -1.08683 0 255 255
2.47923 -4.00014 -1.08683 0 255 255
2.46154 -3.99961 -1.08458 0 255 255
2.44896 -4.00733 -1.08458 0 255 255
2.37848 -3.94752 -1.06432 0 255 255
2.34606 -3.92153 -1.05532 0 255 255
2.33373 -3.92888 -1.05532 0 255 255
2.37087 -4.02012 -1.07782 0 255 255
2.36737 -4.04478 -1.08232 0 255 255
2.35954 -4.06062 -1.08458 0 255 255
2.35164 -4.07645 -1.08683 0 255 255
2.3347 -4.07496 -1.08458 0 255 255
2.33152 -4.09921 -1.08908 0 255 255
2.31863 -4.10652 -1.08908 0 255 255
2.28595 -4.08018 -1.08008 0 255 255
2.28259 -4.10437 -1.08458 0 255 255
2.3309 -4.22242 -1.11383 0 255 255
2.32699 -4.24681 -1.11833 0 255 255
2.31829 -4.26266 -1.12058 0 255 255
2.30951 -4.27849 -1.12283 0 255 255
2.29606 -4.28573 -1.12283 0 255 255
2.28258 -4.29292 -1.12283 0 255 255
2.26909 -4.30007 -1.12283 0 255 255
2.26461 -4.32444 -1.12733 0 255 255
2.1961 -4.32688 -1.12058 0 255 255
2.18688 -4.34246 -1.12283 0 255 255
1.63577 -3.54826 -0.902313 0 255 255
1.58815 -3.47363 -0.882061 0 255 255
1.5893 -3.50523 -0.888812 0 255 255
1.58228 -3.51909 -0.891062 0 255 255
1.57122 -3.52404 -0.891062 0 255 255
1.55165 -3.51141 -0.886562 0 255 255
1.5367 -3.50734 -0.884312 0 255 255
1.52567 -3.51215 -0.884312 0 255 255
1.51463 -3.51693 -0.884312 0 255 255
1.50357 -3.52167 -0.884312 0 255 255
1.4887 -3.5174 -0.882061 0 255 255
1.47388 -3.51308 -0.879811 0 255 255
1.46283 -3.51769 -0.879811 0 255 255
1.45177 -3.52227 -0.879811 0 255 255
1.4407 -3.52681 -0.879811 0 255 255
1.42596 -3.52229 -0.877561 0 255 255
1.41064 -3.51796 -0.875311 0 255 255
1.39959 -3.52237 -0.875311 0 255 255
1.38556 -3.51744 -0.873061 0 255 255
1.37389 -3.52202 -0.873061 0 255 255
1.36281 -3.52632 -0.873061 0 255 255
1.35173 -3.53058 -0.873061 0 255 255
1.33372 -3.51659 -0.86856 0 255 255
1.33294 -3.54812 -0.875311 0 255 255
1.315 -3.53403 -0.870811 0 255 255
1.29715 -3.51986 -0.86631 0 255 255
1.28608 -3.52392 -0.86631 0 255 255
1.2777 -3.53733 -0.86856 0 255 255
1.26002 -3.52297 -0.86406 0 255 255
1.24895 -3.52692 -0.86406 0 255 255
1.23786 -3.53082 -0.86406 0 255 255
1.22357 -3.52549 -0.86181 0 255 255
1.20932 -3.5201 -0.85956 0 255 255
1.20139 -3.53311 -0.86181 0 255 255
1.18718 -3.52763 -0.85956 0 255 255
1.17609 -3.53134 -0.85956 0 255 255
1.16499 -3.53502 -0.85956 0 255 255
1.15388 -3.53866 -0.85956 0 255 255
1.13977 -3.53299 -0.85731 0 255 255
1.12866 -3.53656 -0.85731 0 255 255
1.11693 -3.54028 -0.85731 0 255 255
1.1029 -3.53447 -0.85506 0 255 255
1.0924 -3.53773 -0.85506 0 255 255
1.08067 -3.54133 -0.85506 0 255 255
1.07235 -3.55404 -0.85731 0 255 255
1.06396 -3.56673 -0.85956 0 255 255
1.05 -3.5607 -0.85731 0 255 255
1.03335 -3.54528 -0.852809 0 255 255
1.02221 -3.54851 -0.852809 0 255 255
1.01044 -3.55188 -0.852809 0 255 255
0.994002 -3.53627 -0.848309 0 255 255
0.985495 -3.54877 -0.850559 0 255 255
0.971763 -3.54245 -0.848309 0 255 255
0.960629 -3.54549 -0.848309 0 255 255
0.949486 -3.54849 -0.848309 0 255 255
0.938334 -3.55145 -0.848309 0 255 255
0.927172 -3.55438 -0.848309 0 255 255
0.916001 -3.55728 -0.848309 0 255 255
0.904821 -3.56014 -0.848309 0 255 255
0.893632 -3.56296 -0.848309 0 255 255
0.880094 -3.55629 -0.846059 0 255 255
0.873538 -3.57797 -0.850559 0 255 255
0.862294 -3.5807 -0.850559 0 255 255
0.848789 -3.57391 -0.848309 0 255 255
0.839779 -3.58605 -0.850559 0 255 255
0.821933 -3.56018 -0.843809 0 255 255
0.810744 -3.56275 -0.843809 0 255 255
0.798926 -3.56542 -0.843809 0 255 255
0.802425 -3.63451 -0.85956 0 255 255
0.81378 -3.74174 -0.884312 0 255 255
0.816307 -3.81098 -0.900063 0 255 255
0.820417 -3.88979 -0.918064 0 255 255
0.828001 -3.98775 -0.940565 0 255 255
0.833027 -4.07625 -0.960817 0 255 255
0.837505 -4.16482 -0.981068 0 255 255
0.843325 -4.26301 -1.00357 0 255 255
0.848537 -4.36128 -1.02607 0 255 255
0.858631 -4.48833 -1.05532 0 255 255
0.858932 -4.56762 -1.07333 0 255 255
0.860513 -4.65652 -1.09358 0 255 255
0.36297 -2.24104 -0.524287 0 255 255
0.342179 -2.15557 -0.504035 0 255 255
0.336525 -2.16632 -0.506285 0 255 255
0.337045 -2.21553 -0.517536 0 255 255
0.33047 -2.21652 -0.517536 0 255 255
0.323505 -2.21754 -0.517536 0 255 255
0.317913 -2.22819 -0.519786 0 255 255
0.64251 -4.72108 -1.10033 0 255 255
0.630242 -4.74239 -1.10483 0 255 255
0.615341 -4.74435 -1.10483 0 255 255
0.59921 -4.73659 -1.10258 0 255 255
0.583134 -4.72878 -1.10033 0 255 255
0.568276 -4.73059 -1.10033 0 255 255
0.555674 -4.7517 -1.10483 0 255 255
0.544048 -4.78247 -1.11158 0 255 255
0.529021 -4.78415 -1.11158 0 255 255
0.514192 -4.79557 -1.11383 0 255 255
0.499124 -4.79716 -1.11383 0 255 255
0.486006 -4.8181 -1.11833 0 255 255
0.470867 -4.8196 -1.11833 0 255 255
0.457558 -4.84045 -1.12283 0 255 255
0.39871 -4.68922 -1.08683 0 255 255
0.365692 -4.46709 -1.03507 0 255 255
0.344774 -4.39057 -1.01707 0 255 255
0.273131 -3.62407 -0.839309 0 255 255
0.261744 -3.62491 -0.839309 0 255 255
0.251026 -3.63543 -0.841559 0 255 255
0.240245 -3.64593 -0.843809 0 255 255
0.228179 -3.63694 -0.841559 0 255 255
0.216752 -3.63764 -0.841559 0 255 255
0.205324 -3.6383 -0.841559 0 255 255
0.193892 -3.63893 -0.841559 0 255 255
0.181972 -3.62979 -0.839309 0 255 255
0.024146 -0.974056 -0.225016 0 255 255
0.020875 -0.964386 -0.222766 0 255 255
0.017664 -0.954705 -0.220515 0 255 255
0.014366 -0.935271 -0.216015 0 255 255
0.011547 -0.945054 -0.218265 0 255 255
0.008666 -0.954829 -0.220515 0 255 255
0.005609 -0.945108 -0.218265 0 255 255
0.002474 -0.945121 -0.218265 0 255 255
-0.000495 -0.945124 -0.218265 0 255 255
-0.0035 -0.954862 -0.220515 0 255 255
-0.006433 -0.945103 -0.218265 0 255 255
-0.009402 -0.945078 -0.218265 0 255 255
-0.012244 -0.935301 -0.216015 0 255 255
-0.01534 -0.945 -0.218265 0 255 255
-0.018309 -0.944947 -0.218265 0 255 255
-0.021277 -0.944885 -0.218265 0 255 255
-0.024246 -0.944813 -0.218265 0 255 255
-0.027214 -0.944733 -0.218265 0 255 255
-0.030182 -0.944642 -0.218265 0 255 255
-0.033149 -0.944543 -0.218265 0 255 255
-0.036655 -0.954164 -0.220515 0 255 255
-0.039653 -0.954044 -0.220515 0 255 255
-0.04265 -0.953915 -0.220515 0 255 255
-0.045646 -0.953776 -0.220515 0 255 255
-0.048146 -0.943897 -0.218265 0 255 255
-0.051638 -0.953471 -0.220515 0 255 255
-0.054633 -0.953304 -0.220515 0 255 255
-0.057628 -0.953127 -0.220515 0 255 255
-0.060788 -0.952931 -0.220515 0 255 255
-0.064433 -0.962457 -0.222766 0 255 255
-0.066941 -0.952519 -0.220515 0 255 255
-0.069767 -0.952316 -0.220515 0 255 255
-0.072758 -0.952092 -0.220515 0 255 255
-0.074976 -0.942146 -0.218265 0 255 255
-0.077935 -0.941906 -0.218265 0 255 255
-0.081728 -0.951364 -0.220515 0 255 255
-0.084716 -0.951103 -0.220515 0 255 255
-0.087704 -0.950832 -0.220515 0 255 255
-0.091616 -0.960251 -0.222766 0 255 255
-0.093676 -0.950262 -0.220515 0 255 255
-0.096827 -0.949946 -0.220515 0 255 255
-0.099811 -0.949637 -0.220515 0 255 255
-0.102794 -0.949319 -0.220515 0 255 255
-0.107934 -0.968358 -0.225016 0 255 255
-0.109866 -0.958334 -0.222766 0 255 255
-0.112876 -0.957985 -0.222766 0 255 255
-0.114715 -0.947952 -0.220515 0 255 255
-0.118893 -0.957256 -0.222766 0 255 255
-0.122067 -0.956857 -0.222766 0 255 255
-0.125072 -0.956469 -0.222766 0 255 255
-0.128077 -0.956071 -0.222766 0 255 255
-0.13108 -0.955664 -0.222766 0 255 255
-0.134081 -0.955247 -0.222766 0 255 255
-0.137082 -0.954821 -0.222766 0 255 255
-0.140081 -0.954386 -0.222766 0 255 255
-0.143078 -0.953941 -0.222766 0 255 255
-0.146074 -0.953487 -0.222766 0 255 255
-0.150575 -0.96265 -0.225016 0 255 255
-0.152062 -0.952551 -0.222766 0 255 255
-0.15662 -0.961685 -0.225016 0 255 255
-0.159641 -0.961188 -0.225016 0 255 255
-0.16266 -0.960682 -0.225016 0 255 255
-0.165677 -0.960166 -0.225016 0 255 255
-0.168692 -0.959641 -0.225016 0 255 255
-0.173593 -0.968667 -0.227266 0 255 255
-0.173137 -0.948946 -0.222766 0 255 255
-0.176117 -0.948398 -0.222766 0 255 255
-0.179096 -0.94784 -0.222766 0 255 255
-0.183912 -0.956841 -0.225016 0 255 255
-0.186917 -0.956258 -0.225016 0 255 255
-0.19182 -0.965223 -0.227266 0 255 255
-0.192922 -0.955065 -0.225016 0 255 255
-0.195921 -0.954454 -0.225016 0 255 255
-0.198919 -0.953834 -0.225016 0 255 255
-0.205953 -0.972268 -0.229516 0 255 255
-0.206957 -0.962091 -0.227266 0 255 255
-0.209978 -0.961436 -0.227266 0 255 255
-0.212998 -0.960772 -0.227266 0 255 255
-0.216015 -0.960098 -0.227266 0 255 255
-0.221199 -0.968913 -0.229516 0 255 255
-0.222211 -0.958683 -0.227266 0 255 255
-0.225221 -0.95798 -0.227266 0 255 255
-0.22823 -0.957268 -0.227266 0 255 255
-0.233526 -0.966017 -0.229516 0 255 255
-0.238878 -0.974742 -0.231766 0 255 255
-0.23959 -0.96453 -0.229516 0 255 255
-0.242619 -0.963773 -0.229516 0 255 255
-0.245646 -0.963006 -0.229516 0 255 255
-0.24867 -0.962229 -0.229516 0 255 255
-0.25416 -0.970869 -0.231766 0 255 255
-0.257208 -0.970066 -0.231766 0 255 255
-0.257728 -0.959843 -0.229516 0 255 255
-0.260909 -0.958983 -0.229516 0 255 255
-0.266508 -0.967552 -0.231766 0 255 255
-0.269547 -0.96671 -0.231766 0 255 255
-0.275229 -0.975236 -0.234016 0 255 255
-0.278291 -0.974367 -0.234016 0 255 255
-0.281351 -0.973488 -0.234016 0 255 255
-0.284408 -0.972599 -0.234016 0 255 255
-0.287462 -0.971701 -0.234016 0 255 255
-0.290513 -0.970793 -0.234016 0 255 255
-0.293562 -0.969875 -0.234016 0 255 255
-0.296607 -0.968948 -0.234016 0 255 255
-0.29965 -0.968012 -0.234016 0 255 255
-0.308682 -0.985609 -0.238517 0 255 255
-0.305895 -0.966056 -0.234016 0 255 255
-0.311898 -0.97437 -0.236266 0 255 255
-0.314958 -0.973386 -0.236266 0 255 255
-0.318014 -0.972391 -0.236266 0 255 255
-0.321068 -0.971387 -0.236266 0 255 255
-0.324287 -0.970317 -0.236266 0 255 255
-0.327334 -0.969294 -0.236266 0 255 255
-0.330377 -0.968261 -0.236266 0 255 255
-0.333418 -0.967218 -0.236266 0 255 255
-0.336455 -0.966166 -0.236266 0 255 255
-0.342721 -0.974295 -0.238517 0 255 255
-0.342518 -0.964033 -0.236266 0 255 255
-0.352127 -0.981294 -0.240767 0 255 255
-0.348569 -0.961862 -0.236266 0 255 255
-0.354937 -0.969912 -0.238517 0 255 255
-0.364737 -0.987071 -0.243017 0 255 255
-0.361024 -0.967663 -0.238517 0 255 255
-0.367497 -0.975642 -0.240767 0 255 255
-0.370561 -0.974482 -0.240767 0 255 255
-0.377112 -0.98241 -0.243017 0 255 255
-0.376676 -0.972135 -0.240767 0 255 255
-0.383277 -0.980021 -0.243017 0 255 255
-0.386525 -0.978745 -0.243017 0 255 255
-0.389598 -0.977526 -0.243017 0 255 255
-0.392667 -0.976297 -0.243017 0 255 255
-0.399396 -0.984087 -0.245267 0 255 255
-0.402486 -0.982827 -0.245267 0 255 255
-0.409292 -0.990563 -0.247517 0 255 255
-0.408653 -0.980279 -0.245267 0 255 255
-0.419285 -0.996953 -0.249767 0 255 255
-0.414804 -0.977692 -0.245267 0 255 255
-0.417874 -0.976384 -0.245267 0 255 255
-0.420939 -0.975066 -0.245267 0 255 255
-0.42789 -0.982673 -0.247517 0 255 255
-0.430975 -0.981323 -0.247517 0 255 255
-0.430279 -0.970981 -0.245267 0 255 255
-0.437303 -0.97852 -0.247517 0 255 255
-0.440375 -0.977141 -0.247517 0 255 255
-0.447474 -0.984623 -0.249767 0 255 255
-0.450565 -0.983213 -0.249767 0 255 255
-0.453652 -0.981792 -0.249767 0 255 255
-0.460849 -0.989194 -0.252018 0 255 255
-0.459811 -0.978923 -0.249767 0 255 255
-0.467055 -0.986279 -0.252018 0 255 255
-0.465953 -0.976014 -0.249767 0 255 255
-0.469017 -0.974546 -0.249767 0 255 255
-0.476501 -0.981751 -0.252018 0 255 255
-0.479583 -0.980249 -0.252018 0 255 255
-0.482489 -0.978822 -0.252018 0 255 255
-0.485732 -0.977216 -0.252018 0 255 255
-0.493164 -0.984397 -0.254268 0 255 255
-0.496254 -0.982843 -0.254268 0 255 255
-0.499339 -0.981279 -0.254268 0 255 255
-0.50242 -0.979705 -0.254268 0 255 255
-0.505495 -0.978122 -0.254268 0 255 255
-0.513066 -0.985171 -0.256518 0 255 255
-0.516159 -0.983554 -0.256518 0 255 255
-0.523801 -0.990541 -0.258768 0 255 255
-0.52691 -0.988891 -0.258768 0 255 255
-0.530014 -0.987231 -0.258768 0 255 255
-0.533113 -0.985561 -0.258768 0 255 255
-0.536206 -0.983881 -0.258768 0 255 255
-0.543984 -0.990732 -0.261018 0 255 255
-0.542549 -0.980398 -0.258768 0 255 255
-0.550371 -0.987199 -0.261018 0 255 255
-0.563012 -1.00246 -0.265518 0 255 255
-0.56136 -0.992202 -0.263268 0 255 255
-0.131649 -0.216439 -0.058504 0 255 255
-0.117626 -0.19075 -0.051754 0 255 255
-0.10852 -0.173466 -0.047253 0 255 255
-0.114258 -0.181368 -0.049503 0 255 255
-0.109608 -0.172781 -0.047253 0 255 255
-0.115395 -0.180647 -0.049503 0 255 255
-0.121233 -0.188478 -0.051754 0 255 255
-0.117093 -0.179551 -0.049503 0 255 255
-0.112338 -0.171018 -0.047253 0 255 255
-0.113945 -0.169952 -0.047253 0 255 255
-0.125381 -0.185745 -0.051754 0 255 255
-0.125964 -0.18535 -0.051754 0 255 255
-0.126545 -0.184953 -0.051754 0 255 255
-0.12163 -0.17651 -0.049503 0 255 255
-0.122183 -0.176127 -0.049503 0 255 255
-0.128283 -0.183753 -0.051754 0 255 255
-0.151308 -0.215209 -0.060754 0 255 255
-0.180128 -0.254498 -0.072005 0 255 255
-0.203542 -0.285672 -0.081006 0 255 255
-0.181723 -0.253361 -0.072005 0 255 255
-0.171111 -0.23699 -0.067505 0 255 255
-0.171855 -0.236451 -0.067505 0 255 255
-0.19561 -0.267365 -0.076505 0 255 255
-0.202227 -0.274594 -0.078755 0 255 255
-0.249508 -0.336576 -0.096757 0 255 255
-0.23891 -0.320173 -0.092256 0 255 255
-0.234063 -0.31163 -0.090006 0 255 255
-0.235041 -0.310893 -0.090006 0 255 255
-0.224216 -0.294645 -0.085506 0 255 255
-0.195517 -0.255263 -0.074255 0 255 255
-0.160624 -0.208348 -0.060754 0 255 255
-0.161277 -0.207843 -0.060754 0 255 255
-0.161929 -0.207335 -0.060754 0 255 255
-0.16258 -0.206825 -0.060754 0 255 255
-0.175359 -0.221565 -0.065255 0 255 255
-0.169983 -0.213392 -0.063004 0 255 255
-0.176786 -0.220428 -0.065255 0 255 255
-0.189676 -0.235068 -0.069755 0 255 255
-0.178129 -0.219344 -0.065255 0 255 255
-0.191149 -0.233872 -0.069755 0 255 255
-0.179504 -0.218221 -0.065255 0 255 255
-0.192615 -0.232666 -0.069755 0 255 255
-0.180871 -0.217088 -0.065255 0 255 255
-0.181552 -0.216519 -0.065255 0 255 255
-0.188516 -0.223394 -0.067505 0 255 255
-0.195524 -0.230228 -0.069755 0 255 255
-0.189915 -0.222205 -0.067505 0 255 255
-0.190613 -0.221608 -0.067505 0 255 255
-0.178554 -0.206274 -0.063004 0 255 255
-0.192001 -0.220406 -0.067505 0 255 255
-0.205539 -0.234455 -0.072005 0 255 255
-0.199828 -0.226501 -0.069755 0 255 255
-0.23293 -0.262263 -0.081006 0 255 255
-0.246739 -0.276059 -0.085506 0 255 255
-0.247605 -0.275283 -0.085506 0 255 255
-0.268084 -0.296175 -0.092256 0 255 255
-0.255891 -0.280925 -0.087756 0 255 255
-0.276524 -0.301667 -0.094507 0 255 255
-0.284077 -0.307959 -0.096757 0 255 255
-0.278414 -0.299924 -0.094507 0 255 255
-0.286006 -0.306168 -0.096757 0 255 255
-0.293695 -0.312316 -0.099007 0 255 255
-0.301371 -0.318469 -0.101257 0 255 255
-0.295597 -0.310516 -0.099007 0 255 255
-0.303367 -0.316569 -0.101257 0 255 255
-0.297596 -0.308601 -0.099007 0 255 255
-0.325706 -0.335634 -0.108008 0 255 255
-0.306337 -0.313696 -0.101257 0 255 255
-0.31415 -0.319681 -0.103507 0 255 255
-0.322004 -0.325621 -0.105757 0 255 255
-0.309279 -0.310795 -0.101257 0 255 255
-0.310254 -0.309821 -0.101257 0 255 255
-0.30431 -0.301982 -0.099007 0 255 255
-0.312195 -0.307866 -0.101257 0 255 255
-0.31316 -0.306884 -0.101257 0 255 255
-0.321103 -0.312696 -0.103507 0 255 255
-0.315082 -0.30491 -0.101257 0 255 255
-0.323062 -0.310672 -0.103507 0 255 255
-0.324036 -0.309656 -0.103507 0 255 255
-0.332073 -0.315346 -0.105757 0 255 255
-0.340204 -0.320929 -0.108008 0 255 255
-0.334102 -0.313195 -0.105757 0 255 255
-0.327955 -0.305502 -0.103507 0 255 255
-0.328913 -0.30447 -0.103507 0 255 255
-0.329868 -0.303436 -0.103507 0 255 255
-0.316436 -0.28925 -0.099007 0 255 255
-0.331768 -0.301357 -0.103507 0 255 255
-0.332713 -0.300313 -0.103507 0 255 255
-0.326402 -0.292761 -0.101257 0 255 255
-0.334594 -0.298217 -0.103507 0 255 255
-0.342823 -0.303624 -0.105757 0 255 255
-0.329146 -0.289672 -0.101257 0 255 255
-0.337389 -0.29505 -0.103507 0 255 255
-0.33096 -0.287598 -0.101257 0 255 255
-0.339288 -0.292865 -0.103507 0 255 255
-0.340206 -0.291798 -0.103507 0 255 255
-0.341121 -0.290728 -0.103507 0 255 255
-0.342033 -0.289655 -0.103507 0 255 255
-0.342941 -0.288579 -0.103507 0 255 255
-0.351321 -0.29375 -0.105757 0 255 255
-0.344748 -0.286418 -0.103507 0 255 255
-0.345646 -0.285334 -0.103507 0 255 255
-0.34654 -0.284246 -0.103507 0 255 255
-0.347432 -0.283156 -0.103507 0 255 255
-0.348319 -0.282063 -0.103507 0 255 255
-0.349204 -0.280968 -0.103507 0 255 255
-0.357695 -0.285954 -0.105757 0 255 255
-0.343333 -0.272708 -0.101257 0 255 255
-0.344188 -0.271628 -0.101257 0 255 255
-0.345039 -0.270545 -0.101257 0 255 255
-0.353574 -0.275448 -0.103507 0 255 255
-0.346732 -0.268372 -0.101257 0 255 255
-0.347574 -0.267282 -0.101257 0 255 255
-0.348412 -0.266188 -0.101257 0 255 255
-0.357007 -0.270983 -0.103507 0 255 255
-0.350077 -0.263994 -0.101257 0 255 255
-0.350905 -0.262893 -0.101257 0 255 255
-0.351729 -0.261789 -0.101257 0 255 255
-0.352595 -0.260621 -0.101257 0 255 255
-0.361266 -0.265279 -0.103507 0 255 255
-0.362098 -0.264143 -0.103507 0 255 255
-0.370815 -0.268722 -0.105757 0 255 255
-0.36375 -0.261863 -0.103507 0 255 255
-0.372497 -0.266386 -0.105757 0 255 255
-0.373332 -0.265215 -0.105757 0 255 255
-0.382124 -0.269659 -0.108008 0 255 255
-0.382969 -0.268457 -0.108008 0 255 255
-0.383811 -0.267252 -0.108008 0 255 255
-0.400675 -0.27713 -0.112508 0 255 255
-0.409575 -0.281388 -0.114758 0 255 255
-0.410457 -0.2801 -0.114758 0 255 255
-0.393655 -0.252528 -0.108008 0 255 255
-0.386229 -0.246055 -0.105757 0 255 255
-0.370532 -0.234421 -0.101257 0 255 255
-0.371266 -0.233256 -0.101257 0 255 255
-0.38853 -0.242404 -0.105757 0 255 255
-0.364442 -0.225787 -0.099007 0 255 255
-0.381747 -0.234852 -0.103507 0 255 255
-0.374168 -0.228572 -0.101257 0 255 255
-0.358223 -0.217289 -0.096757 0 255 255
-0.36725 -0.22119 -0.099007 0 255 255
-0.367943 -0.220035 -0.099007 0 255 255
-0.377011 -0.223853 -0.101257 0 255 255
-0.377712 -0.222667 -0.101257 0 255 255
-0.386819 -0.226401 -0.103507 0 255 255
-0.379104 -0.220289 -0.101257 0 255 255
-0.379794 -0.219097 -0.101257 0 255 255
-0.388935 -0.222745 -0.103507 0 255 255
-0.389633 -0.221522 -0.103507 0 255 255
-0.41044 -0.250632 -0.093929 0 255 255
-0.411225 -0.249341 -0.093929 0 255 255
-0.412007 -0.248048 -0.093929 0 255 255
-0.395936 -0.236681 -0.090095 0 255 255
-0.388237 -0.230427 -0.088178 0 255 255
-0.397415 -0.234189 -0.090095 0 255 255
-0.40662 -0.237895 -0.092012 0 255 255
-0.415852 -0.241546 -0.093929 0 255 255
-0.408107 -0.235336 -0.092012 0 255 255
-0.400326 -0.229176 -0.090095 0 255 255
-0.426643 -0.242465 -0.095846 0 255 255
-0.427403 -0.241124 -0.095846 0 255 255
-0.411032 -0.230189 -0.092012 0 255 255
-0.394596 -0.219359 -0.088178 0 255 255
-0.421063 -0.232343 -0.093929 0 255 255
-0.421791 -0.231019 -0.093929 0 255 255
-0.43976 -0.239068 -0.097763 0 255 255
-0.449146 -0.242346 -0.099679 0 255 255
-0.449905 -0.240934 -0.099679 0 255 255
-0.47666 -0.253338 -0.10543 0 255 255
-0.45141 -0.238102 -0.099679 0 255 255
-0.443461 -0.232132 -0.097763 0 255 255
-0.418059 -0.217164 -0.092012 0 255 255
-0.444911 -0.229341 -0.097763 0 255 255
-0.428153 -0.219003 -0.093929 0 255 255
-0.411335 -0.208773 -0.090095 0 255 255
-0.429521 -0.216308 -0.093929 0 255 255
-0.40386 -0.201797 -0.088178 0 255 255
-0.413285 -0.204887 -0.090095 0 255 255
-0.405119 -0.199256 -0.088178 0 255 255
-0.405743 -0.197982 -0.088178 0 255 255
-0.406363 -0.196706 -0.088178 0 255 255
-0.389285 -0.186932 -0.084344 0 255 255
-0.38987 -0.185708 -0.084344 0 255 255
-0.390419 -0.18455 -0.084344 0 255 255
-0.391029 -0.183255 -0.084344 0 255 255
-0.391603 -0.182025 -0.084344 0 255 255
-0.374347 -0.172576 -0.08051 0 255 255
-0.383813 -0.17548 -0.082427 0 255 255
-0.384362 -0.174274 -0.082427 0 255 255
-0.367005 -0.165016 -0.078593 0 255 255
-0.376486 -0.167859 -0.08051 0 255 255
-0.376982 -0.166741 -0.08051 0 255 255
-0.359528 -0.157672 -0.076676 0 255 255
-0.369022 -0.160455 -0.078593 0 255 255
-0.378537 -0.163181 -0.08051 0 255 255
-0.370023 -0.158133 -0.078593 0 255 255
-0.379555 -0.160799 -0.08051 0 255 255
-0.371036 -0.155741 -0.078593 0 255 255
-0.371524 -0.154574 -0.078593 0 255 255
-0.362908 -0.149728 -0.076676 0 255 255
-0.354292 -0.144873 -0.07476 0 255 255
-0.354746 -0.143759 -0.07476 0 255 255
-0.346088 -0.138986 -0.072843 0 255 255
-0.346523 -0.137898 -0.072843 0 255 255
-0.337824 -0.133209 -0.070926 0 255 255
-0.347382 -0.135718 -0.072843 0 255 255
-0.347807 -0.134626 -0.072843 0 255 255
-0.339064 -0.130019 -0.070926 0 255 255
-0.339471 -0.128953 -0.070926 0 255 255
-0.330689 -0.124429 -0.069009 0 255 255
-0.340275 -0.126818 -0.070926 0 255 255
-0.340671 -0.125748 -0.070926 0 255 255
-0.341065 -0.124677 -0.070926 0 255 255
-0.322998 -0.116924 -0.067092 0 255 255
-0.304886 -0.109285 -0.063258 0 255 255
-0.314477 -0.111609 -0.065175 0 255 255
-0.314826 -0.110621 -0.065175 0 255 255
-0.333691 -0.116138 -0.069009 0 255 255
-0.334054 -0.115089 -0.069009 0 255 255
-0.334414 -0.114039 -0.069009 0 255 255
-0.334771 -0.112988 -0.069009 0 255 255
-0.344433 -0.115045 -0.070926 0 255 255
-0.344793 -0.113963 -0.070926 0 255 255
-0.345149 -0.112879 -0.070926 0 255 255
-0.336164 -0.108772 -0.069009 0 255 255
-0.345852 -0.110708 -0.070926 0 255 255
-0.355554 -0.112584 -0.072843 0 255 255
-0.337174 -0.105599 -0.069009 0 255 255
-0.337504 -0.10454 -0.069009 0 255 255
-0.3566 -0.109228 -0.072843 0 255 255
-0.366334 -0.110952 -0.07476 0 255 255
-0.376083 -0.112616 -0.076676 0 255 255
-0.376435 -0.111434 -0.076676 0 255 255
-0.376783 -0.11025 -0.076676 0 255 255
-0.367699 -0.10634 -0.07476 0 255 255
-0.377468 -0.107881 -0.076676 0 255 255
-0.36836 -0.104027 -0.07476 0 255 255
-0.368685 -0.102869 -0.07476 0 255 255
-0.359545 -0.099103 -0.072843 0 255 255
-0.359855 -0.097973 -0.072843 0 255 255
-0.360161 -0.096842 -0.072843 0 255 255
-0.360463 -0.09571 -0.072843 0 255 255
-0.351268 -0.092088 -0.070926 0 255 255
-0.361057 -0.093443 -0.072843 0 255 255
-0.35184 -0.089879 -0.070926 0 255 255
-0.314053 -0.079176 -0.063258 0 255 255
-0.342873 -0.085297 -0.069009 0 255 255
-0.333594 -0.081938 -0.067092 0 255 255
-0.305234 -0.073957 -0.061341 0 255 255
-0.31501 -0.075279 -0.063258 0 255 255
-0.324798 -0.07654 -0.065175 0 255 255
-0.305917 -0.071077 -0.061341 0 255 255
-0.306139 -0.070115 -0.061341 0 255 255
-0.296784 -0.066992 -0.059424 0 255 255
-0.325734 -0.072452 -0.065175 0 255 255
-0.32596 -0.071429 -0.065175 0 255 255
-0.326183 -0.070404 -0.065175 0 255 255
-0.307203 -0.065298 -0.061341 0 255 255
-0.307406 -0.064333 -0.061341 0 255 255
-0.307607 -0.063366 -0.061341 0 255 255
-0.298185 -0.06045 -0.059424 0 255 255
-0.307999 -0.061432 -0.061341 0 255 255
-0.279298 -0.054796 -0.05559 0 255 255
-0.289105 -0.055778 -0.057507 0 255 255
-0.318207 -0.060356 -0.063258 0 255 255
-0.299098 -0.055759 -0.059424 0 255 255
-0.328234 -0.060124 -0.065175 0 255 255
-0.328421 -0.059092 -0.065175 0 255 255
-0.33827 -0.059768 -0.067092 0 255 255
-0.328786 -0.057028 -0.065175 0 255 255
-0.328963 -0.055994 -0.065175 0 255 255
-0.319448 -0.0534 -0.063258 0 255 255
-0.319614 -0.052396 -0.063258 0 255 255
-0.329467 -0.052949 -0.065175 0 255 255
-0.290852 -0.045806 -0.057507 0 255 255
-0.310394 -0.047885 -0.061341 0 255 255
-0.291134 -0.043978 -0.057507 0 255 255
-0.300979 -0.044498 -0.059424 0 255 255
-0.291404 -0.042148 -0.057507 0 255 255
-0.291535 -0.041232 -0.057507 0 255 255
-0.291663 -0.040316 -0.057507 0 255 255
-0.291789 -0.039399 -0.057507 0 255 255
-0.282181 -0.0372 -0.05559 0 255 255
-0.29203 -0.037565 -0.057507 0 255 255
-0.292147 -0.036648 -0.057507 0 255 255
-0.292261 -0.03573 -0.057507 0 255 255
-0.282626 -0.033651 -0.05559 0 255 255
-0.272981 -0.031633 -0.053674 0 255 255
-0.282832 -0.031875 -0.05559 0 255 255
-0.282925 -0.031035 -0.05559 0 255 255
-0.273262 -0.029107 -0.053674 0 255 255
-0.273352 -0.028248 -0.053674 0 255 255
-0.283205 -0.028367 -0.05559 0 255 255
-0.273524 -0.02653 -0.053674 0 255 255
-0.283377 -0.026587 -0.05559 0 255 255
-0.293234 -0.026583 -0.057507 0 255 255
-0.283539 -0.024806 -0.05559 0 255 255
-0.293395 -0.02474 -0.057507 0 255 255
-0.293472 -0.023818 -0.057507 0 255 255
-0.293545 -0.022896 -0.057507 0 255 255
-0.303403 -0.022706 -0.059424 0 255 255
-0.293683 -0.021051 -0.057507 0 255 255
-0.283956 -0.019458 -0.05559 0 255 255
-0.284013 -0.018615 -0.05559 0 255 255
-0.28407 -0.017723 -0.05559 0 255 255
-0.284124 -0.01683 -0.05559 0 255 255
-0.284175 -0.015938 -0.05559 0 255 255
-0.284224 -0.015045 -0.05559 0 255 255
-0.294072 -0.01464 -0.057507 0 255 255
-0.284313 -0.013259 -0.05559 0 255 255
-0.294159 -0.012792 -0.057507 0 255 255
-0.284391 -0.011472 -0.05559 0 255 255
-0.284425 -0.010578 -0.05559 0 255 255
-0.284457 -0.009685 -0.05559 0 255 255
-0.274676 -0.008488 -0.053674 0 255 255
-0.274702 -0.007625 -0.053674 0 255 255
-0.274724 -0.006762 -0.053674 0 255 255
-0.264932 -0.005688 -0.051757 0 255 255
-0.255136 -0.004676 -0.04984 0 255 255
-0.264962 -0.004024 -0.051757 0 255 255
-0.264974 -0.003191 -0.051757 0 255 255
-0.264982 -0.002405 -0.051757 0 255 255
-0.264988 -0.001572 -0.051757 0 255 255
-0.255177 -0.000713 -0.04984 0 255 255
-0.235549 8.2e-05 -0.046006 0 255 255
-0.255177 0.000891 -0.04984 0 255 255
-0.264987 0.001757 -0.051757 0 255 255
-0.255166 0.002494 -0.04984 0 255 255
-0.264971 0.003422 -0.051757 0 255 255
-0.255145 0.004097 -0.04984 0 255 255
-0.245319 0.00471 -0.047923 0 255 255
-0.294363 0.006577 -0.057507 0 255 255
-0.294341 0.007502 -0.057507 0 255 255
-0.323749 0.009213 -0.063258 0 255 255
-0.392386 0.0124 -0.076676 0 255 255
-0.411963 0.014314 -0.08051 0 255 255
-0.402108 0.015237 -0.078593 0 255 255
-0.291635 0.04052 -0.057507 0 255 255
-0.31094 0.044198 -0.061341 0 255 255
-0.301087 0.043763 -0.059424 0 255 255
-0.300956 0.044656 -0.059424 0 255 255
-0.310518 0.047072 -0.061341 0 255 255
-0.310369 0.048048 -0.061341 0 255 255
-0.310216 0.049022 -0.061341 0 255 255
-0.31975 0.051559 -0.063258 0 255 255
-0.309902 0.050971 -0.061341 0 255 255
-0.290382 0.048697 -0.057507 0 255 255
-0.290227 0.049609 -0.057507 0 255 255
-0.280401 0.048837 -0.05559 0 255 255
-0.28991 0.051432 -0.057507 0 255 255
-0.289747 0.052343 -0.057507 0 255 255
-0.279928 0.051477 -0.05559 0 255 255
-0.279774 0.052308 -0.05559 0 255 255
-0.269967 0.051352 -0.053674 0 255 255
-0.289076 0.055929 -0.057507 0 255 255
-0.288899 0.056837 -0.057507 0 255 255
-0.279095 0.055819 -0.05559 0 255 255
-0.288536 0.058651 -0.057507 0 255 255
-0.269127 0.055586 -0.053674 0 255 255
-0.268951 0.056432 -0.053674 0 255 255
-0.268772 0.057276 -0.053674 0 255 255
-0.268591 0.05812 -0.053674 0 255 255
-0.258821 0.056858 -0.051757 0 255 255
-0.258641 0.057671 -0.051757 0 255 255
-0.258469 0.058438 -0.051757 0 255 255
-0.258274 0.059295 -0.051757 0 255 255
-0.248527 0.05788 -0.04984 0 255 255
-0.238793 0.056404 -0.047923 0 255 255
-0.238624 0.057112 -0.047923 0 255 255
-0.247981 0.060176 -0.04984 0 255 255
-0.22873 0.056266 -0.046006 0 255 255
-0.276168 0.068856 -0.05559 0 255 255
-0.285465 0.072128 -0.057507 0 255 255
-0.304253 0.077893 -0.061341 0 255 255
-0.323007 0.083776 -0.065175 0 255 255
-0.341727 0.089778 -0.069009 0 255 255
-0.369915 0.098357 -0.07476 0 255 255
-0.407512 0.109726 -0.082427 0 255 255
-0.416634 0.113588 -0.084344 0 255 255
-0.444658 0.12273 -0.090095 0 255 255
-0.463175 0.129408 -0.093929 0 255 255
-0.424989 0.12018 -0.086261 0 255 255
-0.42461 0.121514 -0.086261 0 255 255
-0.433653 0.125578 -0.088178 0 255 255
-0.433256 0.126939 -0.088178 0 255 255
-0.423445 0.125511 -0.086261 0 255 255
-0.441851 0.132478 -0.090095 0 255 255
-0.450825 0.136713 -0.092012 0 255 255
-0.450417 0.13805 -0.092012 0 255 255
-0.459356 0.14237 -0.093929 0 255 255
-0.468272 0.146748 -0.095846 0 255 255
-0.458453 0.145254 -0.093929 0 255 255
-0.457994 0.146693 -0.093929 0 255 255
-0.438856 0.142085 -0.090095 0 255 255
-0.494375 0.161777 -0.101596 0 255 255
-0.465909 0.154085 -0.095846 0 255 255
-0.446806 0.149326 -0.092012 0 255 255
-0.464932 0.157009 -0.095846 0 255 255
-0.455175 0.15522 -0.093929 0 255 255
-0.463964 0.159846 -0.095846 0 255 255
-0.454191 0.158077 -0.093929 0 255 255
-0.462951 0.162758 -0.095846 0 255 255
-0.453188 0.160928 -0.093929 0 255 255
-0.461919 0.165664 -0.095846 0 255 255
-0.470624 0.170456 -0.097763 0 255 255
-0.470086 0.171934 -0.097763 0 255 255
-0.469544 0.17341 -0.097763 0 255 255
-0.478193 0.178313 -0.099679 0 255 255
-0.477662 0.179732 -0.099679 0 255 255
-0.46792 0.177746 -0.097763 0 255 255
-0.485687 0.186243 -0.101596 0 255 255
-0.475946 0.184225 -0.099679 0 255 255
-0.475365 0.18572 -0.099679 0 255 255
