ply
format ascii 1.0
element vertex 1278
property float x
property float y
property float z
property uchar red
property uchar green
property uchar blue
end_header
-0.810768 5.52387 -1.28934 0 255 255
-0.793411 5.52639 -1.28934 0 255 255
-0.777012 5.52872 -1.28934 0 255 255
-0.758312 5.52148 -1.28709 0 255 255
-0.739667 5.51418 -1.28484 0 255 255
-0.724869 5.5358 -1.28934 0 255 255
-0.706241 5.52838 -1.28709 0 255 255
-0.68887 5.53057 -1.28709 0 255 255
-0.673632 5.54227 -1.28934 0 255 255
-0.655073 5.53468 -1.28709 0 255 255
-0.63991 5.55607 -1.29159 0 255 255
-0.621368 5.54837 -1.28934 0 255 255
-0.60499 5.55998 -1.29159 0 255 255
-0.585471 5.54247 -1.28709 0 255 255
-0.570019 5.55388 -1.28934 0 255 255
-0.552567 5.55564 -1.28934 0 255 255
-0.534178 5.54765 -1.28709 0 255 255
-0.517651 5.559 -1.28934 0 255 255
-0.500183 5.5606 -1.28934 0 255 255
-0.483555 5.57186 -1.29159 0 255 255
-0.466046 5.57335 -1.29159 0 255 255
-0.448539 5.57478 -1.29159 0 255 255
-0.431994 5.57609 -1.29159 0 255 255
-0.413751 5.5677 -1.28934 0 255 255
-0.397641 5.58841 -1.29384 0 255 255
-0.379423 5.57991 -1.29159 0 255 255
-0.361892 5.58108 -1.29159 0 255 255
-0.344356 5.58219 -1.29159 0 255 255
-0.32779 5.58318 -1.29159 0 255 255
-0.310249 5.58419 -1.29159 0 255 255
2.00412 5.14826 -1.27584 0 255 255
2.02028 5.14194 -1.27584 0 255 255
2.03284 5.12651 -1.27359 0 255 255
2.04893 5.1201 -1.27359 0 255 255
2.05771 5.09557 -1.26909 0 255 255
2.07738 5.0981 -1.27134 0 255 255
2.0925 5.09192 -1.27134 0 255 255
2.10849 5.08532 -1.27134 0 255 255
2.11693 5.06069 -1.26684 0 255 255
2.13661 5.06299 -1.26909 0 255 255
2.15251 5.05626 -1.26909 0 255 255
2.16453 5.04052 -1.26684 0 255 255
2.18335 5.04301 -1.26909 0 255 255
2.19529 5.0272 -1.26684 0 255 255
2.21499 5.0292 -1.26909 0 255 255
2.22287 5.0044 -1.26459 0 255 255
2.24655 5.01518 -1.26909 0 255 255
2.25427 4.99034 -1.26459 0 255 255
2.28206 5.00983 -1.27134 0 255 255
0.992317 2.16043 -0.549038 0 255 255
0.9991 2.1573 -0.549038 0 255 255
2.30444 4.93513 -1.25784 0 255 255
2.30662 4.90182 -1.25109 0 255 255
2.32201 4.89455 -1.25109 0 255 255
2.33737 4.88723 -1.25109 0 255 255
2.35272 4.87987 -1.25109 0 255 255
2.35952 4.85492 -1.24659 0 255 255
2.37905 4.85624 -1.24884 0 255 255
2.39861 4.85748 -1.25109 0 255 255
2.41385 4.84992 -1.25109 0 255 255
2.4195 4.82531 -1.24659 0 255 255
2.43904 4.82638 -1.24884 0 255 255
2.44977 4.81002 -1.24659 0 255 255
2.46042 4.79363 -1.24434 0 255 255
2.47463 4.78631 -1.24434 0 255 255
2.48966 4.77851 -1.24434 0 255 255
2.50012 4.76204 -1.24209 0 255 255
2.51963 4.76277 -1.24434 0 255 255
2.53458 4.75483 -1.24434 0 255 255
2.54489 4.73826 -1.24209 0 255 255
2.55894 4.73069 -1.24209 0 255 255
2.56913 4.71407 -1.23984 0 255 255
2.58475 4.70553 -1.23984 0 255 255
2.5948 4.68886 -1.23759 0 255 255
2.6087 4.68114 -1.23759 0 255 255
2.62339 4.67292 -1.23759 0 255 255
2.63806 4.66466 -1.23759 0 255 255
2.6527 4.65635 -1.23759 0 255 255
2.66732 4.64799 -1.23759 0 255 255
2.68191 4.63959 -1.23759 0 255 255
2.69076 4.62319 -1.23534 0 255 255
2.70034 4.60631 -1.23309 0 255 255
2.7148 4.5978 -1.23309 0 255 255
2.72923 4.58925 -1.23309 0 255 255
2.74284 4.58113 -1.23309 0 255 255
2.76728 4.58918 -1.23759 0 255 255
2.76651 4.55548 -1.23084 0 255 255
2.78081 4.54676 -1.23084 0 255 255
2.78997 4.52971 -1.22859 0 255 255
2.80418 4.52092 -1.22859 0 255 255
2.81837 4.51209 -1.22859 0 255 255
2.83253 4.50321 -1.22859 0 255 255
2.84588 4.49479 -1.22859 0 255 255
2.84951 4.4694 -1.22408 0 255 255
2.86354 4.46042 -1.22408 0 255 255
2.88283 4.45959 -1.22634 0 255 255
2.89151 4.44234 -1.22408 0 255 255
2.90011 4.42509 -1.22184 0 255 255
2.91936 4.42409 -1.22408 0 255 255
2.92786 4.40678 -1.22184 0 255 255
2.94092 4.39807 -1.22184 0 255 255
2.96016 4.39689 -1.22408 0 255 255
2.96849 4.37951 -1.22184 0 255 255
2.98224 4.37016 -1.22184 0 255 255
2.99043 4.35274 -1.21958 0 255 255
3.00409 4.34332 -1.21958 0 255 255
3.01772 4.33386 -1.21958 0 255 255
3.03132 4.32436 -1.21958 0 255 255
3.0449 4.31482 -1.21958 0 255 255
3.05843 4.30523 -1.21958 0 255 255
3.07119 4.29613 -1.21958 0 255 255
3.07899 4.27856 -1.21733 0 255 255
3.0867 4.26097 -1.21509 0 255 255
3.10007 4.25125 -1.21509 0 255 255
3.11267 4.24204 -1.21509 0 255 255
3.12598 4.23224 -1.21509 0 255 255
3.13345 4.21458 -1.21283 0 255 255
3.14667 4.20471 -1.21283 0 255 255
3.154 4.18702 -1.21058 0 255 255
3.16714 4.17709 -1.21058 0 255 255
3.17434 4.15938 -1.20833 0 255 255
3.18145 4.14166 -1.20608 0 255 255
3.18849 4.12393 -1.20383 0 255 255
3.20143 4.1139 -1.20383 0 255 255
3.21963 4.11205 -1.20608 0 255 255
3.2265 4.09426 -1.20383 0 255 255
3.22724 4.06884 -1.19933 0 255 255
3.24 4.05868 -1.19933 0 255 255
3.25274 4.04848 -1.19933 0 255 255
3.26544 4.03824 -1.19933 0 255 255
3.27196 4.02041 -1.19708 0 255 255
3.29075 4.01764 -1.19933 0 255 255
3.29026 3.99283 -1.19483 0 255 255
3.30279 3.98247 -1.19483 0 255 255
3.31528 3.97207 -1.19483 0 255 255
3.32148 3.95418 -1.19258 0 255 255
3.34018 3.95116 -1.19483 0 255 255
3.35257 3.94065 -1.19483 0 255 255
3.35791 3.92328 -1.19258 0 255 255
3.36386 3.90533 -1.19033 0 255 255
3.37612 3.89475 -1.19033 0 255 255
3.38833 3.88412 -1.19033 0 255 255
3.39409 3.86613 -1.18808 0 255 255
3.39977 3.84815 -1.18583 0 255 255
3.41832 3.84473 -1.18808 0 255 255
3.42388 3.82671 -1.18583 0 255 255
3.43522 3.81654 -1.18583 0 255 255
3.44719 3.80573 -1.18583 0 255 255
3.446 3.78048 -1.18133 0 255 255
3.45786 3.76963 -1.18133 0 255 255
3.46969 3.75875 -1.18133 0 255 255
3.48148 3.74783 -1.18133 0 255 255
3.48593 3.73037 -1.17908 0 255 255
3.49096 3.7123 -1.17683 0 255 255
3.50261 3.70131 -1.17683 0 255 255
3.5075 3.68323 -1.17458 0 255 255
3.51231 3.66516 -1.17233 0 255 255
3.52381 3.65411 -1.17233 0 255 255
3.52848 3.63603 -1.17008 0 255 255
3.53989 3.62493 -1.17008 0 255 255
3.54443 3.60684 -1.16783 0 255 255
3.55574 3.59569 -1.16783 0 255 255
3.56702 3.5845 -1.16783 0 255 255
3.57137 3.56639 -1.16558 0 255 255
3.58194 3.55578 -1.16558 0 255 255
3.57228 3.52398 -1.15883 0 255 255
3.56942 3.49909 -1.15433 0 255 255
3.58039 3.48786 -1.15433 0 255 255
3.58433 3.46982 -1.15208 0 255 255
3.59522 3.45854 -1.15208 0 255 255
3.59902 3.4405 -1.14983 0 255 255
3.60275 3.42247 -1.14758 0 255 255
3.61997 3.41845 -1.14983 0 255 255
3.61648 3.39373 -1.14533 0 255 255
3.62 3.3757 -1.14308 0 255 255
3.62344 3.35769 -1.14083 0 255 255
3.63397 3.34629 -1.14083 0 255 255
3.63728 3.32828 -1.13858 0 255 255
3.64051 3.31028 -1.13633 0 255 255
3.65089 3.29883 -1.13633 0 255 255
3.66123 3.28734 -1.13633 0 255 255
3.66427 3.26934 -1.13408 0 255 255
3.67396 3.25845 -1.13408 0 255 255
3.67686 3.24045 -1.13183 0 255 255
3.68703 3.22888 -1.13183 0 255 255
3.6898 3.21089 -1.12958 0 255 255
3.69987 3.19928 -1.12958 0 255 255
3.71729 3.19399 -1.13183 0 255 255
2.68966 2.2818 -0.814557 0 255 255
3.78392 3.19088 -1.14308 0 255 255
3.77899 3.16646 -1.13858 0 255 255
3.79696 3.16014 -1.14083 0 255 255
3.82189 3.16062 -1.14533 0 255 255
3.91725 2.96152 -1.13408 0 255 255
3.91823 2.94403 -1.13183 0 255 255
3.92746 2.93171 -1.13183 0 255 255
3.93919 2.88305 -1.12733 0 255 255
3.94823 2.87066 -1.12733 0 255 255
3.93704 2.45155 -1.07107 0 255 255
3.96959 2.45454 -1.07782 0 255 255
3.99389 2.45225 -1.08232 0 255 255
3.99325 2.43462 -1.08008 0 255 255
4.00921 2.42711 -1.08232 0 255 255
4.00847 2.40948 -1.08008 0 255 255
4.00724 2.39258 -1.07782 0 255 255
4.02311 2.38495 -1.08008 0 255 255
4.03058 2.3723 -1.08008 0 255 255
4.03802 2.35963 -1.08008 0 255 255
4.05384 2.35182 -1.08232 0 255 255
4.05276 2.33421 -1.08008 0 255 255
4.05162 2.31663 -1.07782 0 255 255
4.02498 2.28465 -1.06882 0 255 255
4.02365 2.26721 -1.06657 0 255 255
4.03075 2.25456 -1.06657 0 255 255
4.0293 2.23715 -1.06432 0 255 255
4.01924 2.21508 -1.05982 0 255 255
4.01763 2.19777 -1.05757 0 255 255
4.03308 2.18978 -1.05982 0 255 255
4.04813 2.18243 -1.06207 0 255 255
4.05497 2.1697 -1.06207 0 255 255
4.05316 2.15238 -1.05982 0 255 255
4.0599 2.13964 -1.05982 0 255 255
4.07524 2.13139 -1.06207 0 255 255
4.09056 2.12306 -1.06432 0 255 255
4.09721 2.1102 -1.06432 0 255 255
4.10382 2.09732 -1.06432 0 255 255
4.11908 2.08883 -1.06657 0 255 255
4.12562 2.07587 -1.06657 0 255 255
4.14048 2.06798 -1.06882 0 255 255
4.15569 2.05929 -1.07107 0 255 255
4.16214 2.04622 -1.07107 0 255 255
4.1773 2.03741 -1.07333 0 255 255
4.22754 2.04549 -1.08458 0 255 255
4.22516 2.02798 -1.08232 0 255 255
4.22271 2.01051 -1.08008 0 255 255
4.24663 2.00556 -1.08458 0 255 255
4.24408 1.98807 -1.08232 0 255 255
4.25031 1.97473 -1.08232 0 255 255
4.265 1.96619 -1.08458 0 255 255
4.26229 1.94873 -1.08232 0 255 255
4.27727 1.93935 -1.08458 0 255 255
4.27445 1.92191 -1.08232 0 255 255
4.29827 1.91641 -1.08683 0 255 255
4.29535 1.89896 -1.08458 0 255 255
4.31022 1.88936 -1.08683 0 255 255
4.32507 1.8797 -1.08908 0 255 255
4.32201 1.86224 -1.08683 0 255 255
4.34576 1.85631 -1.09133 0 255 255
4.33362 1.83505 -1.08683 0 255 255
4.34835 1.8252 -1.08908 0 255 255
4.33607 1.80404 -1.08458 0 255 255
4.35973 1.79784 -1.08908 0 255 255
4.36505 1.7849 -1.08908 0 255 255
4.37063 1.77118 -1.08908 0 255 255
4.36714 1.75381 -1.08683 0 255 255
4.37262 1.74008 -1.08683 0 255 255
4.37807 1.72633 -1.08683 0 255 255
4.38347 1.71257 -1.08683 0 255 255
4.38883 1.69879 -1.08683 0 255 255
4.40324 1.68848 -1.08908 0 255 255
4.39942 1.67118 -1.08683 0 255 255
4.40464 1.65735 -1.08683 0 255 255
4.41867 1.64768 -1.08908 0 255 255
4.42383 1.63379 -1.08908 0 255 255
4.42894 1.61988 -1.08908 0 255 255
4.434 1.60596 -1.08908 0 255 255
4.43903 1.59203 -1.08908 0 255 255
4.44401 1.57807 -1.08908 0 255 255
4.46733 1.57056 -1.09358 0 255 255
4.45384 1.55012 -1.08908 0 255 255
4.45868 1.53612 -1.08908 0 255 255
4.46349 1.5221 -1.08908 0 255 255
4.46825 1.50807 -1.08908 0 255 255
4.49145 1.5002 -1.09358 0 255 255
4.48689 1.48303 -1.09133 0 255 255
4.49152 1.46892 -1.09133 0 255 255
4.49586 1.45559 -1.09133 0 255 255
4.50041 1.44146 -1.09133 0 255 255
4.50492 1.42731 -1.09133 0 255 255
4.51868 1.41607 -1.09358 0 255 255
4.5231 1.40186 -1.09358 0 255 255
4.51817 1.38479 -1.09133 0 255 255
4.53182 1.37342 -1.09358 0 255 255
4.51745 1.35358 -1.08908 0 255 255
4.53102 1.34215 -1.09133 0 255 255
4.54457 1.33064 -1.09358 0 255 255
4.55808 1.31907 -1.09583 0 255 255
4.54347 1.29939 -1.09133 0 255 255
4.57543 1.29385 -1.09808 0 255 255
4.56071 1.27423 -1.09358 0 255 255
4.58347 1.26508 -1.09808 0 255 255
4.55922 1.24299 -1.09133 0 255 255
4.58192 1.23372 -1.09583 0 255 255
4.57636 1.21682 -1.09358 0 255 255
4.59901 1.20738 -1.09808 0 255 255
4.58391 1.18804 -1.09358 0 255 255
4.59706 1.17605 -1.09583 0 255 255
4.59129 1.15922 -1.09358 0 255 255
4.60436 1.14714 -1.09583 0 255 255
4.59848 1.13035 -1.09358 0 255 255
4.61148 1.11819 -1.09583 0 255 255
4.61497 1.1037 -1.09583 0 255 255
4.61841 1.08919 -1.09583 0 255 255
4.62181 1.07468 -1.09583 0 255 255
4.65347 1.0675 -1.10258 0 255 255
1.96726 0.444784 -0.465782 0 255 255
1.95914 0.436483 -0.463532 0 255 255
1.95098 0.428238 -0.461282 0 255 255
1.94279 0.420047 -0.459032 0 255 255
1.95363 0.415971 -0.461282 0 255 255
1.95493 0.409831 -0.461282 0 255 255
1.94667 0.401718 -0.459032 0 255 255
1.95747 0.39754 -0.461282 0 255 255
1.94915 0.389479 -0.459032 0 255 255
1.97905 0.388991 -0.465782 0 255 255
1.97069 0.380923 -0.463532 0 255 255
1.95274 0.371092 -0.459032 0 255 255
1.95389 0.364955 -0.459032 0 255 255
1.96461 0.360574 -0.461282 0 255 255
1.95615 0.352672 -0.459032 0 255 255
1.97643 0.349922 -0.463532 0 255 255
1.97752 0.343711 -0.463532 0 255 255
1.96899 0.335858 -0.461282 0 255 255
1.96043 0.328062 -0.459032 0 255 255
1.971 0.323824 -0.461282 0 255 255
1.96239 0.316081 -0.459032 0 255 255
1.95375 0.308395 -0.456782 0 255 255
1.96434 0.303745 -0.459032 0 255 255
1.96528 0.297572 -0.459032 0 255 255
1.95657 0.289968 -0.456782 0 255 255
1.9864 0.288015 -0.463532 0 255 255
2.00659 0.284508 -0.468033 0 255 255
2.02678 0.280878 -0.472533 0 255 255
1.98903 0.26928 -0.463532 0 255 255
2.01884 0.266861 -0.470283 0 255 255
2.01967 0.260518 -0.470283 0 255 255
2.02043 0.254523 -0.470283 0 255 255
2.01155 0.246988 -0.468033 0 255 255
2.02199 0.241824 -0.470283 0 255 255
2.00339 0.233217 -0.465782 0 255 255
2.02347 0.229115 -0.470283 0 255 255
2.02418 0.222756 -0.470283 0 255 255
2.01518 0.215361 -0.468033 0 255 255
2.03523 0.211039 -0.472533 0 255 255
2.0165 0.202695 -0.468033 0 255 255
2.01712 0.196359 -0.468033 0 255 255
1.94013 0.182712 -0.450031 0 255 255
1.9601 0.178383 -0.454532 0 255 255
1.97035 0.173076 -0.456782 0 255 255
1.97089 0.166886 -0.456782 0 255 255
1.96169 0.159902 -0.454532 0 255 255
1.9719 0.154499 -0.456782 0 255 255
1.97237 0.148304 -0.456782 0 255 255
1.96311 0.141407 -0.454532 0 255 255
1.98296 0.136923 -0.459032 0 255 255
1.97366 0.130053 -0.456782 0 255 255
1.97406 0.123851 -0.456782 0 255 255
1.96471 0.11707 -0.454532 0 255 255
1.9748 0.111446 -0.456782 0 255 255
1.97514 0.105241 -0.456782 0 255 255
1.96573 0.098548 -0.454532 0 255 255
1.97576 0.092829 -0.456782 0 255 255
1.96631 0.086195 -0.454532 0 255 255
1.96657 0.080017 -0.454532 0 255 255
1.98628 0.074569 -0.459032 0 255 255
2.00599 0.068999 -0.463532 0 255 255
2.02567 0.063305 -0.468033 0 255 255
2.0356 0.057215 -0.470283 0 255 255
2.00655 0.050091 -0.463532 0 255 255
2.03592 0.044424 -0.470283 0 255 255
2.00682 0.037482 -0.463532 0 255 255
2.00693 0.031177 -0.463532 0 255 255
2.0265 0.025113 -0.468033 0 255 255
2.02657 0.018747 -0.468033 0 255 255
2.02662 0.012734 -0.468033 0 255 255
2.01691 0.005985 -0.465782 0 255 255
2.02666 -0.000354 -0.468033 0 255 255
2.0169 -0.006688 -0.465782 0 255 255
2.02662 -0.012734 -0.468033 0 255 255
1.97785 -0.018987 -0.456782 0 255 255
1.97778 -0.0252 -0.456782 0 255 255
1.97769 -0.031413 -0.456782 0 255 255
1.97758 -0.037626 -0.456782 0 255 255
1.97746 -0.043839 -0.456782 0 255 255
1.97732 -0.049706 -0.456782 0 255 255
1.98689 -0.056193 -0.459032 0 255 255
1.97696 -0.062129 -0.456782 0 255 255
1.97676 -0.068339 -0.456782 0 255 255
1.97654 -0.074549 -0.456782 0 255 255
1.97629 -0.080758 -0.456782 0 255 255
1.96629 -0.086538 -0.454532 0 255 255
1.97574 -0.093174 -0.456782 0 255 255
1.97544 -0.09938 -0.456782 0 255 255
1.97512 -0.105586 -0.456782 0 255 255
1.97478 -0.11179 -0.456782 0 255 255
1.97442 -0.117994 -0.456782 0 255 255
1.96431 -0.123584 -0.454532 0 255 255
1.99308 -0.131682 -0.461282 0 255 255
2.0121 -0.139288 -0.465782 0 255 255
2.01165 -0.145609 -0.465782 0 255 255
2.01118 -0.151928 -0.465782 0 255 255
2.00098 -0.157481 -0.463532 0 255 255
2.01022 -0.16421 -0.465782 0 255 255
2.00969 -0.170525 -0.465782 0 255 255
2.02856 -0.178546 -0.470283 0 255 255
2.02796 -0.185272 -0.470283 0 255 255
2.02736 -0.191642 -0.470283 0 255 255
2.01706 -0.197063 -0.468033 0 255 255
2.02616 -0.204023 -0.470283 0 255 255
2.02551 -0.210388 -0.470283 0 255 255
2.02483 -0.21675 -0.470283 0 255 255
2.02414 -0.22311 -0.470283 0 255 255
1.99439 -0.226174 -0.463532 0 255 255
1.95495 -0.227925 -0.454532 0 255 255
1.97358 -0.236383 -0.459032 0 255 255
1.9825 -0.243771 -0.461282 0 255 255
1.97205 -0.248779 -0.459032 0 255 255
1.97126 -0.254973 -0.459032 0 255 255
1.98011 -0.262445 -0.461282 0 255 255
1.97928 -0.268664 -0.461282 0 255 255
1.96877 -0.27354 -0.459032 0 255 255
1.9679 -0.279724 -0.459032 0 255 255
1.97666 -0.287306 -0.461282 0 255 255
1.96611 -0.292083 -0.459032 0 255 255
1.97481 -0.29972 -0.461282 0 255 255
1.99312 -0.308907 -0.465782 0 255 255
1.99214 -0.315167 -0.465782 0 255 255
1.98152 -0.319872 -0.463532 0 255 255
1.99012 -0.327678 -0.465782 0 255 255
1.98908 -0.333929 -0.465782 0 255 255
2.00723 -0.343462 -0.470283 0 255 255
2.01574 -0.35144 -0.472533 0 255 255
2.02422 -0.359475 -0.474783 0 255 255
2.02308 -0.365832 -0.474783 0 255 255
2.0315 -0.37395 -0.477033 0 255 255
2.02074 -0.378536 -0.474783 0 255 255
2.01954 -0.384883 -0.474783 0 255 255
2.02789 -0.39308 -0.477033 0 255 255
2.02671 -0.399095 -0.477033 0 255 255
2.02538 -0.405813 -0.477033 0 255 255
2.01454 -0.41023 -0.474783 0 255 255
2.02272 -0.418884 -0.477033 0 255 255
2.02146 -0.424884 -0.477033 0 255 255
2.02012 -0.431232 -0.477033 0 255 255
2.02835 -0.439287 -0.479283 0 255 255
1.96027 -0.431353 -0.463532 0 255 255
1.98744 -0.44388 -0.470283 0 255 255
1.98603 -0.450122 -0.470283 0 255 255
1.97519 -0.453831 -0.468033 0 255 255
1.97376 -0.460034 -0.468033 0 255 255
1.98178 -0.468474 -0.470283 0 255 255
1.9803 -0.474697 -0.470283 0 255 255
1.96933 -0.478615 -0.468033 0 255 255
1.95836 -0.482469 -0.465782 0 255 255
5.33166 -1.33131 -1.26909 0 255 255
5.30856 -1.34327 -1.26459 0 255 255
4.7569 -1.21959 -1.13408 0 255 255
5.48863 -1.42559 -1.30959 0 255 255
5.55009 -1.46018 -1.32534 0 255 255
3.07873 -0.820336 -0.735801 0 255 255
3.0291 -0.817313 -0.72455 0 255 255
3.04531 -0.831961 -0.729051 0 255 255
3.05207 -0.844121 -0.731301 0 255 255
3.03064 -0.848452 -0.726801 0 255 255
3.03734 -0.860625 -0.729051 0 255 255
3.02525 -0.867477 -0.726801 0 255 255
3.02251 -0.876977 -0.726801 0 255 255
3.01974 -0.886468 -0.726801 0 255 255
3.0076 -0.893176 -0.72455 0 255 255
3.00478 -0.902621 -0.72455 0 255 255
2.99261 -0.909223 -0.7223 0 255 255
2.98042 -0.915759 -0.72005 0 255 255
2.96823 -0.922226 -0.7178 0 255 255
2.96531 -0.931547 -0.7178 0 255 255
2.95309 -0.937909 -0.71555 0 255 255
2.94085 -0.944203 -0.7133 0 255 255
2.9286 -0.950429 -0.711049 0 255 255
2.9256 -0.959625 -0.711049 0 255 255
2.92257 -0.968811 -0.711049 0 255 255
2.91027 -0.974893 -0.708799 0 255 255
2.89797 -0.980907 -0.706549 0 255 255
2.89487 -0.990007 -0.706549 0 255 255
2.88254 -0.995915 -0.704299 0 255 255
2.87019 -1.00175 -0.702049 0 255 255
2.86703 -1.01077 -0.702049 0 255 255
2.85466 -1.0165 -0.699799 0 255 255
2.85146 -1.02546 -0.699799 0 255 255
2.84822 -1.03442 -0.699799 0 255 255
2.84496 -1.04336 -0.699799 0 255 255
2.84167 -1.05229 -0.699799 0 255 255
2.82922 -1.0578 -0.697549 0 255 255
2.81677 -1.06324 -0.695298 0 255 255
2.81341 -1.07209 -0.695298 0 255 255
2.80094 -1.07742 -0.693048 0 255 255
2.75212 -1.06858 -0.681798 0 255 255
2.68525 -1.05234 -0.666046 0 255 255
2.66381 -1.0536 -0.661546 0 255 255
2.67859 -1.06919 -0.666046 0 255 255
2.66617 -1.07396 -0.663796 0 255 255
2.66279 -1.08233 -0.663796 0 255 255
2.65937 -1.09069 -0.663796 0 255 255
2.65594 -1.09904 -0.663796 0 255 255
2.65247 -1.10738 -0.663796 0 255 255
2.64898 -1.1157 -0.663796 0 255 255
2.67236 -1.13545 -0.670547 0 255 255
2.7044 -1.15967 -0.679547 0 255 255
2.71863 -1.17589 -0.684048 0 255 255
2.73278 -1.19222 -0.688548 0 255 255
2.72923 -1.20032 -0.688548 0 255 255
2.73436 -1.21284 -0.690798 0 255 255
2.73943 -1.2254 -0.693048 0 255 255
2.74445 -1.23801 -0.695298 0 255 255
2.74054 -1.24663 -0.695298 0 255 255
2.72776 -1.25117 -0.693048 0 255 255
2.72359 -1.26021 -0.693048 0 255 255
2.72845 -1.27288 -0.695298 0 255 255
2.72444 -1.28144 -0.695298 0 255 255
2.7204 -1.28999 -0.695298 0 255 255
2.73414 -1.30646 -0.699799 0 255 255
2.72102 -1.31129 -0.697549 0 255 255
2.72565 -1.32409 -0.699799 0 255 255
2.72148 -1.33265 -0.699799 0 255 255
2.71751 -1.34072 -0.699799 0 255 255
2.72177 -1.35406 -0.702049 0 255 255
2.73493 -1.37134 -0.706549 0 255 255
2.72191 -1.37553 -0.704299 0 255 255
2.72625 -1.3885 -0.706549 0 255 255
2.73055 -1.4015 -0.708799 0 255 255
2.72613 -1.41007 -0.708799 0 255 255
2.73033 -1.42314 -0.711049 0 255 255
2.72584 -1.43171 -0.711049 0 255 255
2.72133 -1.44026 -0.711049 0 255 255
2.73399 -1.45798 -0.71555 0 255 255
2.72081 -1.46195 -0.7133 0 255 255
2.72477 -1.47512 -0.71555 0 255 255
2.72013 -1.48368 -0.71555 0 255 255
2.72425 -1.49643 -0.7178 0 255 255
2.71101 -1.50027 -0.71555 0 255 255
2.72304 -1.51874 -0.72005 0 255 255
2.72675 -1.53206 -0.7223 0 255 255
2.72193 -1.54062 -0.7223 0 255 255
2.71707 -1.54916 -0.7223 0 255 255
2.72064 -1.56254 -0.72455 0 255 255
4.20318 -2.52054 -1.13183 0 255 255
4.1869 -2.52869 -1.12958 0 255 255
4.18726 -2.5469 -1.13183 0 255 255
4.16262 -2.54986 -1.12733 0 255 255
4.16289 -2.56804 -1.12958 0 255 255
4.14652 -2.57596 -1.12733 0 255 255
4.15497 -2.63581 -1.13633 0 255 255
4.13846 -2.6436 -1.13408 0 255 255
4.14652 -2.66713 -1.13858 0 255 255
4.10541 -2.65896 -1.12958 0 255 255
4.1052 -2.67717 -1.13183 0 255 255
4.06419 -2.66866 -1.12283 0 255 255
3.73067 -2.46647 -1.03282 0 255 255
3.55258 -2.3648 -0.985569 0 255 255
3.51275 -2.35425 -0.976568 0 255 255
3.48111 -2.34892 -0.969818 0 255 255
3.43341 -2.33247 -0.958567 0 255 255
3.38586 -2.31574 -0.947316 0 255 255
3.33042 -2.29321 -0.933815 0 255 255
3.29917 -2.28701 -0.927065 0 255 255
3.268 -2.28064 -0.920314 0 255 255
3.22095 -2.26289 -0.909063 0 255 255
3.18201 -2.25049 -0.900063 0 255 255
3.1273 -2.22657 -0.886562 0 255 255
3.11237 -2.2307 -0.884312 0 255 255
3.10496 -2.24101 -0.884312 0 255 255
3.10578 -2.25648 -0.886562 0 255 255
3.09081 -2.26048 -0.884312 0 255 255
3.08409 -2.26964 -0.884312 0 255 255
3.07655 -2.27985 -0.884312 0 255 255
3.07718 -2.29533 -0.886562 0 255 255
3.06996 -2.30499 -0.886562 0 255 255
3.0627 -2.31462 -0.886562 0 255 255
3.06317 -2.33013 -0.888812 0 255 255
3.0481 -2.33382 -0.886562 0 255 255
3.04075 -2.34338 -0.886562 0 255 255
3.03337 -2.35293 -0.886562 0 255 255
3.02597 -2.36244 -0.886562 0 255 255
3.01087 -2.36592 -0.884312 0 255 255
2.99578 -2.36932 -0.882061 0 255 255
2.99594 -2.38479 -0.884312 0 255 255
2.98083 -2.3881 -0.882061 0 255 255
2.96573 -2.39133 -0.879811 0 255 255
2.9582 -2.40064 -0.879811 0 255 255
2.93555 -2.39759 -0.875311 0 255 255
2.92801 -2.4068 -0.875311 0 255 255
2.92043 -2.41599 -0.875311 0 255 255
2.90534 -2.41892 -0.873061 0 255 255
2.89026 -2.42178 -0.870811 0 255 255
2.88263 -2.43085 -0.870811 0 255 255
2.87498 -2.43989 -0.870811 0 255 255
2.8673 -2.44891 -0.870811 0 255 255
2.85221 -2.45155 -0.86856 0 255 255
2.85186 -2.46688 -0.870811 0 255 255
2.83675 -2.46943 -0.86856 0 255 255
2.8363 -2.48475 -0.870811 0 255 255
2.82118 -2.4872 -0.86856 0 255 255
2.80606 -2.48958 -0.86631 0 255 255
2.80549 -2.50488 -0.86856 0 255 255
2.79036 -2.50717 -0.86631 0 255 255
2.78203 -2.51641 -0.86631 0 255 255
2.76691 -2.51857 -0.86406 0 255 255
2.75898 -2.52726 -0.86406 0 255 255
2.75103 -2.53591 -0.86406 0 255 255
2.7359 -2.53791 -0.86181 0 255 255
2.73504 -2.55314 -0.86406 0 255 255
2.72701 -2.56172 -0.86406 0 255 255
2.72603 -2.57697 -0.86631 0 255 255
2.71792 -2.58552 -0.86631 0 255 255
2.71682 -2.60079 -0.86856 0 255 255
2.71565 -2.61607 -0.870811 0 255 255
2.72141 -2.63815 -0.875311 0 255 255
2.72008 -2.65349 -0.877561 0 255 255
2.71174 -2.66202 -0.877561 0 255 255
2.71029 -2.67738 -0.879811 0 255 255
2.69496 -2.67901 -0.877561 0 255 255
2.94339 -2.98165 -0.967567 0 255 255
2.92719 -2.98393 -0.965317 0 255 255
2.9246 -3.00009 -0.967567 0 255 255
2.90838 -3.00226 -0.965317 0 255 255
2.91245 -3.02542 -0.969818 0 255 255
2.88946 -3.02048 -0.965317 0 255 255
2.89285 -3.04417 -0.969818 0 255 255
2.90735 -3.13745 -0.987819 0 255 255
2.89088 -3.13941 -0.985569 0 255 255
2.881 -3.14847 -0.985569 0 255 255
2.8711 -3.15751 -0.985569 0 255 255
2.83503 -3.13759 -0.976568 0 255 255
2.82516 -3.14649 -0.976568 0 255 255
2.81526 -3.15534 -0.976568 0 255 255
2.80534 -3.16417 -0.976568 0 255 255
2.80826 -3.18759 -0.981068 0 255 255
2.81107 -3.21106 -0.985569 0 255 255
2.80097 -3.21988 -0.985569 0 255 255
2.81576 -3.25864 -0.994569 0 255 255
2.8182 -3.28225 -0.99907 0 255 255
3.03065 -3.57489 -1.08232 0 255 255
3.03196 -3.59929 -1.08683 0 255 255
3.01501 -3.6008 -1.08458 0 255 255
3.00929 -3.61827 -1.08683 0 255 255
2.9917 -3.6202 -1.08458 0 255 255
2.96113 -3.60751 -1.07782 0 255 255
2.9381 -3.60118 -1.07333 0 255 255
2.87155 -3.54227 -1.05307 0 255 255
2.91541 -3.61957 -1.07333 0 255 255
2.92838 -3.65914 -1.08232 0 255 255
2.9108 -3.66069 -1.08008 0 255 255
2.89929 -3.66982 -1.08008 0 255 255
2.90579 -3.7019 -1.08683 0 255 255
2.88816 -3.70333 -1.08458 0 255 255
2.87054 -3.70468 -1.08232 0 255 255
2.85889 -3.71368 -1.08232 0 255 255
2.84074 -3.73983 -1.08458 0 255 255
2.88767 -3.82651 -1.10708 0 255 255
2.92824 -3.90572 -1.12733 0 255 255
2.92177 -3.92271 -1.12958 0 255 255
2.90364 -3.92404 -1.12733 0 255 255
2.88553 -3.9253 -1.12508 0 255 255
2.87893 -3.94221 -1.12733 0 255 255
2.86653 -3.95123 -1.12733 0 255 255
2.8541 -3.96022 -1.12733 0 255 255
2.83597 -3.96125 -1.12508 0 255 255
2.82351 -3.97013 -1.12508 0 255 255
2.82227 -3.9949 -1.12958 0 255 255
2.80971 -4.00375 -1.12958 0 255 255
2.79154 -4.00456 -1.12733 0 255 255
2.76785 -3.99729 -1.12283 0 255 255
2.75528 -4.00597 -1.12283 0 255 255
2.74818 -4.02265 -1.12508 0 255 255
2.73553 -4.03126 -1.12508 0 255 255
2.72285 -4.03984 -1.12508 0 255 255
2.72099 -4.06456 -1.12958 0 255 255
2.69742 -4.05686 -1.12508 0 255 255
2.67929 -4.05719 -1.12283 0 255 255
2.6765 -4.08235 -1.12733 0 255 255
2.65835 -4.08257 -1.12508 0 255 255
2.57473 -4.00901 -1.10033 0 255 255
2.53068 -3.96779 -1.08683 0 255 255
2.50778 -3.95926 -1.08232 0 255 255
2.49533 -3.96712 -1.08232 0 255 255
2.48285 -3.97494 -1.08232 0 255 255
2.46452 -3.97487 -1.08008 0 255 255
2.46224 -3.99918 -1.08458 0 255 255
2.44966 -4.0069 -1.08458 0 255 255
2.37917 -3.94711 -1.06432 0 255 255
2.35175 -3.92948 -1.05757 0 255 255
2.33939 -3.93685 -1.05757 0 255 255
2.37157 -4.01971 -1.07782 0 255 255
2.3737 -4.05236 -1.08458 0 255 255
2.35606 -4.05137 -1.08232 0 255 255
2.35307 -4.07563 -1.08683 0 255 255
2.34025 -4.083 -1.08683 0 255 255
2.32741 -4.09034 -1.08683 0 255 255
2.30976 -4.08915 -1.08458 0 255 255
2.29214 -4.08788 -1.08232 0 255 255
2.28876 -4.11209 -1.08683 0 255 255
2.32295 -4.20455 -1.10933 0 255 255
2.33315 -4.25454 -1.12058 0 255 255
2.31978 -4.26185 -1.12058 0 255 255
2.30638 -4.26911 -1.12058 0 255 255
2.29221 -4.27674 -1.12058 0 255 255
2.28333 -4.29252 -1.12283 0 255 255
2.26529 -4.29106 -1.12058 0 255 255
2.25632 -4.30678 -1.12283 0 255 255
2.19761 -4.32611 -1.12058 0 255 255
2.18839 -4.34169 -1.12283 0 255 255
1.63293 -3.53885 -0.900063 0 255 255
1.59281 -3.48222 -0.884312 0 255 255
1.58992 -3.50495 -0.888812 0 255 255
1.58689 -3.5277 -0.893312 0 255 255
1.56786 -3.51487 -0.888812 0 255 255
1.55287 -3.51087 -0.886562 0 255 255
1.54183 -3.51573 -0.886562 0 255 255
1.5269 -3.51162 -0.884312 0 255 255
1.51586 -3.5164 -0.884312 0 255 255
1.50036 -3.51245 -0.882061 0 255 255
1.49312 -3.52612 -0.884312 0 255 255
1.47826 -3.52181 -0.882061 0 255 255
1.47093 -3.53543 -0.884312 0 255 255
1.4561 -3.53102 -0.882061 0 255 255
1.44132 -3.52656 -0.879811 0 255 255
1.42657 -3.52204 -0.877561 0 255 255
1.42276 -3.54459 -0.882061 0 255 255
1.40442 -3.53094 -0.877561 0 255 255
1.38974 -3.52626 -0.875311 0 255 255
1.3822 -3.53969 -0.877561 0 255 255
1.36756 -3.53493 -0.875311 0 255 255
1.35234 -3.53034 -0.873061 0 255 255
1.34125 -3.53457 -0.873061 0 255 255
1.32671 -3.52965 -0.870811 0 255 255
1.30881 -3.51554 -0.86631 0 255 255
1.29776 -3.51963 -0.86631 0 255 255
1.2867 -3.52369 -0.86631 0 255 255
1.27562 -3.52772 -0.86631 0 255 255
1.26125 -3.52253 -0.86406 0 255 255
1.24956 -3.5267 -0.86406 0 255 255
1.23525 -3.52141 -0.86181 0 255 255
1.22738 -3.53448 -0.86406 0 255 255
1.2131 -3.5291 -0.86181 0 255 255
1.20201 -3.5329 -0.86181 0 255 255
1.18779 -3.52742 -0.85956 0 255 255
1.17671 -3.53114 -0.85956 0 255 255
1.16866 -3.54407 -0.86181 0 255 255
1.1545 -3.53846 -0.85956 0 255 255
1.14338 -3.54207 -0.85956 0 255 255
1.13521 -3.55492 -0.86181 0 255 255
1.11816 -3.53989 -0.85731 0 255 255
1.10704 -3.54339 -0.85731 0 255 255
1.0959 -3.54685 -0.85731 0 255 255
1.0819 -3.54096 -0.85506 0 255 255
1.06796 -3.53501 -0.852809 0 255 255
1.05901 -3.54787 -0.85506 0 255 255
1.0451 -3.54183 -0.852809 0 255 255
1.03397 -3.5451 -0.852809 0 255 255
1.02283 -3.54833 -0.852809 0 255 255
1.01168 -3.55152 -0.852809 0 255 255
0.997876 -3.54531 -0.850559 0 255 255
0.986114 -3.54859 -0.850559 0 255 255
0.972381 -3.54228 -0.848309 0 255 255
0.963798 -3.55472 -0.850559 0 255 255
0.950725 -3.54815 -0.848309 0 255 255
0.938954 -3.55129 -0.848309 0 255 255
0.927792 -3.55422 -0.848309 0 255 255
0.91419 -3.54768 -0.846059 0 255 255
0.903041 -3.55053 -0.846059 0 255 255
0.891881 -3.55335 -0.846059 0 255 255
0.880714 -3.55614 -0.846059 0 255 255
0.869538 -3.55889 -0.846059 0 255 255
0.858353 -3.5616 -0.846059 0 255 255
0.844907 -3.5548 -0.843809 0 255 255
0.835958 -3.56693 -0.846059 0 255 255
0.820361 -3.55055 -0.841559 0 255 255
0.809202 -3.55311 -0.841559 0 255 255
0.80017 -3.56514 -0.843809 0 255 255
0.801589 -3.62472 -0.85731 0 255 255
0.812361 -3.73208 -0.882061 0 255 255
0.819014 -3.82036 -0.902313 0 255 255
0.821096 -3.88965 -0.918064 0 255 255
0.828697 -3.98761 -0.940565 0 255 255
0.831786 -4.06656 -0.958567 0 255 255
0.840155 -4.17422 -0.983318 0 255 255
0.844069 -4.26286 -1.00357 0 255 255
0.849298 -4.36113 -1.02607 0 255 255
0.859415 -4.48818 -1.05532 0 255 255
0.859729 -4.56746 -1.07333 0 255 255
0.861327 -4.65637 -1.09358 0 255 255
0.342556 -2.15551 -0.504035 0 255 255
0.33878 -2.17583 -0.508535 0 255 255
0.337818 -2.21541 -0.517536 0 255 255
0.330857 -2.21646 -0.517536 0 255 255
0.323892 -2.21749 -0.517536 0 255 255
0.318302 -2.22814 -0.519786 0 255 255
0.643334 -4.72096 -1.10033 0 255 255
0.63107 -4.74228 -1.10483 0 255 255
0.616169 -4.74424 -1.10483 0 255 255
0.598812 -4.72682 -1.10033 0 255 255
0.585154 -4.73835 -1.10258 0 255 255
0.570265 -4.74016 -1.10258 0 255 255
0.554237 -4.73225 -1.10033 0 255 255
0.54378 -4.77269 -1.10933 0 255 255
0.529856 -4.78406 -1.11158 0 255 255
0.514824 -4.7857 -1.11158 0 255 255
0.500798 -4.79699 -1.11383 0 255 255
0.486847 -4.81801 -1.11833 0 255 255
0.470759 -4.80982 -1.11608 0 255 255
0.459321 -4.85007 -1.12508 0 255 255
0.401183 -4.70856 -1.09133 0 255 255
0.367268 -4.47674 -1.03732 0 255 255
0.347073 -4.40016 -1.01932 0 255 255
0.273763 -3.62402 -0.839309 0 255 255
0.262377 -3.62486 -0.839309 0 255 255
0.252334 -3.64511 -0.843809 0 255 255
0.240239 -3.63616 -0.841559 0 255 255
0.229426 -3.64662 -0.843809 0 255 255
0.217968 -3.64733 -0.843809 0 255 255
0.205959 -3.63826 -0.841559 0 255 255
0.194527 -3.63889 -0.841559 0 255 255
0.183095 -3.63949 -0.841559 0 255 255
0.024559 -0.983792 -0.227266 0 255 255
0.021255 -0.974123 -0.225016 0 255 255
0.018013 -0.964443 -0.222766 0 255 255
0.014832 -0.954753 -0.220515 0 255 255
0.011832 -0.954795 -0.220515 0 255 255
0.008743 -0.945084 -0.218265 0 255 255
0.005833 -0.95485 -0.220515 0 255 255
0.002667 -0.954864 -0.220515 0 255 255
-0.000333 -0.954868 -0.220515 0 255 255
-0.003299 -0.945119 -0.218265 0 255 255
-0.006333 -0.954847 -0.220515 0 255 255
-0.009237 -0.945079 -0.218265 0 255 255
-0.012206 -0.945046 -0.218265 0 255 255
-0.015175 -0.945003 -0.218265 0 255 255
-0.018518 -0.964434 -0.222766 0 255 255
-0.02133 -0.95463 -0.220515 0 255 255
-0.024081 -0.944818 -0.218265 0 255 255
-0.027607 -0.964216 -0.222766 0 255 255
-0.030017 -0.944648 -0.218265 0 255 255
-0.033324 -0.954286 -0.220515 0 255 255
-0.036322 -0.954177 -0.220515 0 255 255
-0.03932 -0.954058 -0.220515 0 255 255
-0.042483 -0.953922 -0.220515 0 255 255
-0.04548 -0.953784 -0.220515 0 255 255
-0.049465 -0.973099 -0.225016 0 255 255
-0.051472 -0.95348 -0.220515 0 255 255
-0.054467 -0.953313 -0.220515 0 255 255
-0.057462 -0.953138 -0.220515 0 255 255
-0.060456 -0.952952 -0.220515 0 255 255
-0.063449 -0.952758 -0.220515 0 255 255
-0.066442 -0.952554 -0.220515 0 255 255
-0.0696 -0.952328 -0.220515 0 255 255
-0.071851 -0.942389 -0.218265 0 255 255
-0.074811 -0.942159 -0.218265 0 255 255
-0.078573 -0.95163 -0.220515 0 255 255
-0.081562 -0.951378 -0.220515 0 255 255
-0.085413 -0.960823 -0.222766 0 255 255
-0.087538 -0.950847 -0.220515 0 255 255
-0.091448 -0.960267 -0.222766 0 255 255
-0.094465 -0.959975 -0.222766 0 255 255
-0.097648 -0.959656 -0.222766 0 255 255
-0.100662 -0.959345 -0.222766 0 255 255
-0.103675 -0.959024 -0.222766 0 255 255
-0.106688 -0.958693 -0.222766 0 255 255
-0.108591 -0.948673 -0.220515 0 255 255
-0.112709 -0.958004 -0.222766 0 255 255
-0.115718 -0.957645 -0.222766 0 255 255
-0.118726 -0.957277 -0.222766 0 255 255
-0.121733 -0.956899 -0.222766 0 255 255
-0.124739 -0.956512 -0.222766 0 255 255
-0.126618 -0.946436 -0.220515 0 255 255
-0.129591 -0.946033 -0.220515 0 255 255
-0.133915 -0.955271 -0.222766 0 255 255
-0.136748 -0.954869 -0.222766 0 255 255
-0.139747 -0.954435 -0.222766 0 255 255
-0.144355 -0.963602 -0.225016 0 255 255
-0.147382 -0.963144 -0.225016 0 255 255
-0.150407 -0.962676 -0.225016 0 255 255
-0.15343 -0.962199 -0.225016 0 255 255
-0.154888 -0.952095 -0.222766 0 255 255
-0.159473 -0.961216 -0.225016 0 255 255
-0.160867 -0.951103 -0.222766 0 255 255
-0.163854 -0.950593 -0.222766 0 255 255
-0.17021 -0.969267 -0.227266 0 255 255
-0.171539 -0.959136 -0.225016 0 255 255
-0.174552 -0.958593 -0.225016 0 255 255
-0.177729 -0.958008 -0.225016 0 255 255
-0.184353 -0.976594 -0.229516 0 255 255
-0.185583 -0.966442 -0.227266 0 255 255
-0.188618 -0.965854 -0.227266 0 255 255
-0.189754 -0.955699 -0.225016 0 255 255
-0.194683 -0.96465 -0.227266 0 255 255
-0.19967 -0.973578 -0.229516 0 255 255
-0.198752 -0.953869 -0.225016 0 255 255
-0.203766 -0.962772 -0.227266 0 255 255
-0.204742 -0.952601 -0.225016 0 255 255
-0.209811 -0.961473 -0.227266 0 255 255
-0.214937 -0.970322 -0.229516 0 255 255
-0.215848 -0.960135 -0.227266 0 255 255
-0.218863 -0.959453 -0.227266 0 255 255
-0.221876 -0.95876 -0.227266 0 255 255
-0.231567 -0.986516 -0.234016 0 255 255
-0.230321 -0.966786 -0.229516 0 255 255
-0.233357 -0.966057 -0.229516 0 255 255
-0.236391 -0.96532 -0.229516 0 255 255
-0.239422 -0.964572 -0.229516 0 255 255
-0.244828 -0.973264 -0.231766 0 255 255
-0.245478 -0.963049 -0.229516 0 255 255
-0.250939 -0.971707 -0.231766 0 255 255
-0.251524 -0.961487 -0.229516 0 255 255
-0.257039 -0.970111 -0.231766 0 255 255
-0.260085 -0.969299 -0.231766 0 255 255
-0.265855 -0.977833 -0.234016 0 255 255
-0.26634 -0.967599 -0.231766 0 255 255
-0.271993 -0.976143 -0.234016 0 255 255
-0.275058 -0.975284 -0.234016 0 255 255
-0.278121 -0.974415 -0.234016 0 255 255
-0.278477 -0.964176 -0.231766 0 255 255
-0.284238 -0.972649 -0.234016 0 255 255
-0.287292 -0.971751 -0.234016 0 255 255
-0.290344 -0.970843 -0.234016 0 255 255
-0.293392 -0.969926 -0.234016 0 255 255
-0.296438 -0.969 -0.234016 0 255 255
-0.29965 -0.968012 -0.234016 0 255 255
-0.3056 -0.976364 -0.236266 0 255 255
-0.308666 -0.975399 -0.236266 0 255 255
-0.311728 -0.974425 -0.236266 0 255 255
-0.320784 -0.991982 -0.240767 0 255 255
-0.314817 -0.963185 -0.234016 0 255 255
-0.320898 -0.971444 -0.236266 0 255 255
-0.327205 -0.979616 -0.238517 0 255 255
-0.33028 -0.978583 -0.238517 0 255 255
-0.333353 -0.97754 -0.238517 0 255 255
-0.336423 -0.976488 -0.238517 0 255 255
-0.339489 -0.975427 -0.238517 0 255 255
-0.342551 -0.974355 -0.238517 0 255 255
-0.345611 -0.973274 -0.238517 0 255 255
-0.348666 -0.972184 -0.238517 0 255 255
-0.348401 -0.961922 -0.236266 0 255 255
-0.354768 -0.969974 -0.238517 0 255 255
-0.361189 -0.977995 -0.240767 0 255 255
-0.36426 -0.976855 -0.240767 0 255 255
-0.367327 -0.975706 -0.240767 0 255 255
-0.37039 -0.974547 -0.240767 0 255 255
-0.37362 -0.973314 -0.240767 0 255 255
-0.380196 -0.98122 -0.243017 0 255 255
-0.383448 -0.979954 -0.243017 0 255 255
-0.386354 -0.978812 -0.243017 0 255 255
-0.389427 -0.977594 -0.243017 0 255 255
-0.392496 -0.976365 -0.243017 0 255 255
-0.395562 -0.975127 -0.243017 0 255 255
-0.398623 -0.97388 -0.243017 0 255 255
-0.4054 -0.981629 -0.245267 0 255 255
-0.404734 -0.971356 -0.243017 0 255 255
-0.415336 -0.988044 -0.247517 0 255 255
-0.414634 -0.977764 -0.245267 0 255 255
-0.417703 -0.976457 -0.245267 0 255 255
-0.424629 -0.984086 -0.247517 0 255 255
-0.424 -0.973739 -0.245267 0 255 255
-0.427057 -0.972402 -0.245267 0 255 255
-0.434056 -0.979965 -0.247517 0 255 255
-0.437133 -0.978596 -0.247517 0 255 255
-0.440205 -0.977218 -0.247517 0 255 255
-0.443272 -0.97583 -0.247517 0 255 255
-0.450394 -0.983291 -0.249767 0 255 255
-0.45348 -0.981872 -0.249767 0 255 255
-0.456563 -0.980442 -0.249767 0 255 255
-0.459641 -0.979003 -0.249767 0 255 255
-0.466883 -0.986361 -0.252018 0 255 255
-0.469979 -0.984889 -0.252018 0 255 255
-0.473071 -0.983408 -0.252018 0 255 255
-0.476329 -0.981834 -0.252018 0 255 255
-0.483692 -0.989085 -0.254268 0 255 255
-0.486797 -0.987561 -0.254268 0 255 255
-0.494232 -0.994753 -0.256518 0 255 255
-0.492992 -0.984483 -0.254268 0 255 255
-0.500646 -0.99154 -0.256518 0 255 255
-0.503758 -0.989963 -0.256518 0 255 255
-0.515758 -1.00572 -0.261018 0 255 255
-0.509796 -0.986867 -0.256518 0 255 255
-0.517393 -0.993903 -0.258768 0 255 255
-0.520513 -0.992273 -0.258768 0 255 255
-0.528181 -0.999247 -0.261018 0 255 255
-0.531318 -0.997583 -0.261018 0 255 255
-0.539232 -1.0044 -0.263268 0 255 255
-0.537749 -0.994131 -0.261018 0 255 255
-0.540869 -0.992436 -0.261018 0 255 255
-0.543984 -0.990732 -0.261018 0 255 255
-0.561243 -1.0146 -0.267769 0 255 255
-0.554942 -0.995806 -0.263268 0 255 255
-0.572377 -1.01955 -0.270019 0 255 255
-0.575577 -1.01774 -0.270019 0 255 255
-0.106301 -0.174835 -0.047253 0 255 255
-0.12274 -0.199044 -0.054004 0 255 255
-0.113084 -0.182103 -0.049503 0 255 255
-0.134995 -0.214368 -0.058504 0 255 255
-0.109578 -0.1728 -0.047253 0 255 255
-0.115395 -0.180647 -0.049503 0 255 255
-0.115962 -0.180284 -0.049503 0 255 255
-0.111231 -0.17174 -0.047253 0 255 255
-0.117093 -0.179551 -0.049503 0 255 255
-0.117656 -0.179183 -0.049503 0 255 255
-0.123592 -0.18694 -0.051754 0 255 255
-0.113381 -0.170329 -0.047253 0 255 255
-0.124764 -0.18616 -0.051754 0 255 255
-0.130832 -0.193821 -0.054004 0 255 255
-0.120487 -0.177291 -0.049503 0 255 255
-0.132081 -0.192972 -0.054004 0 255 255
-0.121599 -0.176531 -0.049503 0 255 255
-0.122153 -0.176148 -0.049503 0 255 255
-0.145016 -0.20772 -0.058504 0 255 255
-0.17368 -0.247122 -0.069755 0 255 255
-0.168828 -0.238621 -0.067505 0 255 255
-0.226103 -0.317453 -0.090006 0 255 255
-0.181679 -0.253393 -0.072005 0 255 255
-0.176815 -0.244889 -0.069755 0 255 255
-0.18904 -0.260096 -0.074255 0 255 255
-0.17835 -0.243774 -0.069755 0 255 255
-0.202227 -0.274594 -0.078755 0 255 255
-0.203088 -0.273958 -0.078755 0 255 255
-0.233083 -0.312364 -0.090006 0 255 255
-0.234063 -0.31163 -0.090006 0 255 255
-0.235041 -0.310893 -0.090006 0 255 255
-0.212415 -0.279138 -0.081006 0 255 255
-0.195517 -0.255263 -0.074255 0 255 255
-0.160624 -0.208348 -0.060754 0 255 255
-0.149331 -0.192447 -0.056254 0 255 255
-0.155932 -0.199656 -0.058504 0 255 255
-0.16258 -0.206825 -0.060754 0 255 255
-0.17532 -0.221596 -0.065255 0 255 255
-0.163876 -0.2058 -0.060754 0 255 255
-0.164522 -0.205284 -0.060754 0 255 255
-0.177401 -0.219934 -0.065255 0 255 255
-0.17195 -0.211811 -0.063004 0 255 255
-0.178779 -0.218815 -0.065255 0 255 255
-0.191883 -0.23327 -0.069755 0 255 255
-0.173975 -0.21015 -0.063004 0 255 255
-0.16216 -0.194631 -0.058504 0 255 255
-0.175292 -0.209053 -0.063004 0 255 255
-0.182232 -0.215948 -0.065255 0 255 255
-0.195524 -0.230228 -0.069755 0 255 255
-0.189915 -0.222205 -0.067505 0 255 255
-0.184259 -0.214221 -0.065255 0 255 255
-0.184931 -0.213641 -0.065255 0 255 255
-0.185601 -0.213059 -0.065255 0 255 255
-0.205539 -0.234455 -0.072005 0 255 255
-0.206274 -0.233808 -0.072005 0 255 255
-0.213477 -0.240445 -0.074255 0 255 255
-0.246691 -0.276102 -0.085506 0 255 255
-0.247557 -0.275326 -0.085506 0 255 255
-0.248421 -0.274547 -0.085506 0 255 255
-0.295259 -0.324144 -0.101257 0 255 255
-0.26994 -0.294485 -0.092256 0 255 255
-0.284077 -0.307959 -0.096757 0 255 255
-0.271785 -0.292783 -0.092256 0 255 255
-0.286006 -0.306168 -0.096757 0 255 255
-0.280293 -0.298169 -0.094507 0 255 255
-0.29462 -0.311443 -0.099007 0 255 255
-0.295597 -0.310516 -0.099007 0 255 255
-0.296571 -0.309586 -0.099007 0 255 255
-0.304304 -0.315667 -0.101257 0 255 255
-0.305295 -0.31471 -0.101257 0 255 255
-0.319894 -0.327693 -0.105757 0 255 255
-0.307321 -0.312732 -0.101257 0 255 255
-0.322004 -0.325621 -0.105757 0 255 255
-0.316152 -0.317701 -0.103507 0 255 255
-0.310254 -0.309821 -0.101257 0 255 255
-0.311226 -0.308845 -0.101257 0 255 255
-0.319132 -0.314707 -0.103507 0 255 255
-0.334038 -0.327342 -0.108008 0 255 255
-0.321103 -0.312696 -0.103507 0 255 255
-0.322084 -0.311686 -0.103507 0 255 255
-0.316039 -0.303919 -0.101257 0 255 255
-0.324036 -0.309656 -0.103507 0 255 255
-0.325008 -0.308636 -0.103507 0 255 255
-0.325975 -0.307614 -0.103507 0 255 255
-0.334048 -0.313253 -0.105757 0 255 255
-0.33503 -0.312202 -0.105757 0 255 255
-0.32886 -0.304528 -0.103507 0 255 255
-0.336985 -0.310091 -0.105757 0 255 255
-0.330767 -0.302456 -0.103507 0 255 255
-0.346193 -0.31446 -0.108008 0 255 255
-0.339946 -0.306842 -0.105757 0 255 255
-0.326402 -0.292761 -0.101257 0 255 255
-0.327269 -0.291791 -0.101257 0 255 255
-0.335529 -0.297164 -0.103507 0 255 255
-0.336461 -0.296109 -0.103507 0 255 255
-0.344724 -0.301464 -0.105757 0 255 255
-0.338315 -0.293989 -0.103507 0 255 255
-0.346611 -0.299292 -0.105757 0 255 255
-0.340155 -0.291857 -0.103507 0 255 255
-0.348485 -0.297109 -0.105757 0 255 255
-0.349417 -0.296012 -0.105757 0 255 255
-0.357852 -0.301126 -0.108008 0 255 255
-0.343846 -0.2875 -0.103507 0 255 255
-0.344748 -0.286418 -0.103507 0 255 255
-0.353109 -0.291598 -0.105757 0 255 255
-0.354074 -0.290426 -0.105757 0 255 255
-0.347432 -0.283156 -0.103507 0 255 255
-0.355892 -0.288195 -0.105757 0 255 255
-0.349155 -0.281029 -0.103507 0 255 255
-0.350085 -0.279869 -0.103507 0 255 255
-0.350962 -0.278768 -0.103507 0 255 255
-0.351885 -0.277603 -0.103507 0 255 255
-0.345039 -0.270545 -0.101257 0 255 255
-0.345888 -0.26946 -0.101257 0 255 255
-0.346732 -0.268372 -0.101257 0 255 255
-0.347574 -0.267282 -0.101257 0 255 255
-0.348412 -0.266188 -0.101257 0 255 255
-0.349246 -0.265092 -0.101257 0 255 255
-0.350077 -0.263994 -0.101257 0 255 255
-0.358703 -0.268735 -0.103507 0 255 255
-0.351729 -0.261789 -0.101257 0 255 255
-0.360384 -0.266476 -0.103507 0 255 255
-0.36122 -0.265342 -0.103507 0 255 255
-0.369922 -0.26995 -0.105757 0 255 255
-0.36288 -0.263067 -0.103507 0 255 255
-0.371611 -0.26762 -0.105757 0 255 255
-0.37245 -0.266451 -0.105757 0 255 255
-0.381227 -0.270924 -0.108008 0 255 255
-0.390037 -0.275345 -0.110258 0 255 255
-0.382969 -0.268457 -0.108008 0 255 255
-0.399803 -0.278388 -0.112508 0 255 255
-0.400675 -0.27713 -0.112508 0 255 255
-0.409575 -0.281388 -0.114758 0 255 255
-0.410457 -0.2801 -0.114758 0 255 255
-0.40835 -0.265692 -0.112508 0 255 255
-0.37721 -0.242072 -0.103507 0 255 255
-0.377969 -0.240885 -0.103507 0 255 255
-0.378724 -0.239697 -0.103507 0 255 255
-0.387767 -0.243623 -0.105757 0 255 255
-0.371997 -0.232089 -0.101257 0 255 255
-0.364442 -0.225787 -0.099007 0 255 255
-0.36511 -0.224705 -0.099007 0 255 255
-0.365814 -0.223557 -0.099007 0 255 255
-0.374845 -0.227461 -0.101257 0 255 255
-0.367211 -0.221254 -0.099007 0 255 255
-0.367905 -0.220099 -0.099007 0 255 255
-0.377011 -0.223853 -0.101257 0 255 255
-0.377712 -0.222667 -0.101257 0 255 255
-0.37841 -0.221479 -0.101257 0 255 255
-0.370679 -0.215394 -0.099007 0 255 255
-0.371354 -0.214229 -0.099007 0 255 255
-0.38048 -0.217903 -0.101257 0 255 255
-0.381163 -0.216707 -0.101257 0 255 255
-0.381842 -0.215508 -0.101257 0 255 255
-0.391017 -0.21907 -0.103507 0 255 255
-0.391704 -0.21784 -0.103507 0 255 255
-0.392386 -0.216609 -0.103507 0 255 255
-0.36743 -0.201329 -0.096757 0 255 255
-0.359501 -0.195518 -0.094507 0 255 255
-0.360114 -0.194388 -0.094507 0 255 255
-0.360723 -0.193256 -0.094507 0 255 255
-0.361328 -0.192121 -0.094507 0 255 255
-0.353345 -0.186376 -0.092256 0 255 255
-0.353929 -0.185265 -0.092256 0 255 255
-0.345862 -0.179661 -0.090006 0 255 255
-0.346425 -0.178574 -0.090006 0 255 255
-0.33831 -0.173047 -0.087756 0 255 255
-0.338852 -0.171984 -0.087756 0 255 255
-0.330688 -0.166536 -0.085506 0 255 255
-0.339926 -0.169851 -0.087756 0 255 255
-0.331728 -0.164455 -0.085506 0 255 255
-0.3235 -0.159111 -0.083256 0 255 255
-0.323998 -0.158094 -0.083256 0 255 255
-0.315723 -0.15283 -0.081006 0 255 255
-0.281068 -0.134967 -0.072005 0 255 255
-0.290287 -0.138273 -0.074255 0 255 255
-0.28191 -0.133198 -0.072005 0 255 255
-0.264682 -0.124043 -0.067505 0 255 255
-0.282742 -0.131424 -0.072005 0 255 255
-0.274305 -0.126456 -0.069755 0 255 255
-0.283562 -0.129645 -0.072005 0 255 255
-0.292842 -0.132777 -0.074255 0 255 255
-0.319917 -0.143844 -0.081006 0 255 255
-0.320368 -0.142838 -0.081006 0 255 255
-0.329726 -0.145771 -0.083256 0 255 255
-0.330183 -0.144734 -0.083256 0 255 255
-0.3217 -0.139812 -0.081006 0 255 255
-0.322137 -0.138801 -0.081006 0 255 255
-0.331532 -0.141616 -0.083256 0 255 255
-0.331975 -0.140573 -0.083256 0 255 255
-0.323455 -0.135702 -0.081006 0 255 255
-0.314883 -0.130944 -0.078755 0 255 255
-0.324301 -0.133667 -0.081006 0 255 255
-0.324696 -0.132704 -0.081006 0 255 255
-0.334142 -0.135342 -0.083256 0 255 255
-0.334566 -0.134291 -0.083256 0 255 255
-0.325955 -0.129581 -0.081006 0 255 255
-0.335426 -0.132128 -0.083256 0 255 255
-0.33584 -0.131073 -0.083256 0 255 255
-0.345338 -0.133532 -0.085506 0 255 255
-0.345755 -0.132446 -0.085506 0 255 255
-0.34617 -0.131359 -0.085506 0 255 255
-0.33746 -0.126843 -0.083256 0 255 255
-0.328726 -0.122383 -0.081006 0 255 255
-0.33825 -0.12472 -0.083256 0 255 255
-0.329488 -0.120315 -0.081006 0 255 255
-0.329865 -0.119279 -0.081006 0 255 255
-0.330238 -0.118242 -0.081006 0 255 255
-0.321424 -0.113948 -0.078755 0 255 255
-0.312587 -0.109711 -0.076505 0 255 255
-0.331337 -0.115125 -0.081006 0 255 255
-0.331697 -0.114083 -0.081006 0 255 255
-0.341278 -0.11618 -0.083256 0 255 255
-0.332408 -0.111997 -0.081006 0 255 255
-0.332758 -0.110952 -0.081006 0 255 255
-0.333105 -0.109906 -0.081006 0 255 255
-0.333448 -0.108859 -0.081006 0 255 255
-0.343061 -0.110806 -0.083256 0 255 255
-0.343407 -0.109727 -0.083256 0 255 255
-0.33446 -0.105711 -0.081006 0 255 255
-0.34409 -0.107567 -0.083256 0 255 255
-0.335117 -0.103608 -0.081006 0 255 255
-0.326123 -0.099706 -0.078755 0 255 255
-0.317108 -0.095861 -0.076505 0 255 255
-0.326743 -0.097655 -0.078755 0 255 255
-0.33641 -0.09933 -0.081006 0 255 255
-0.327367 -0.095543 -0.078755 0 255 255
-0.33701 -0.097273 -0.081006 0 255 255
-0.337314 -0.096214 -0.081006 0 255 255
-0.328237 -0.092511 -0.078755 0 255 255
-0.328526 -0.091479 -0.078755 0 255 255
-0.328812 -0.090446 -0.078755 0 255 255
-0.347916 -0.094462 -0.083256 0 255 255
-0.3388 -0.090844 -0.081006 0 255 255
-0.348503 -0.092274 -0.083256 0 255 255
-0.339364 -0.088714 -0.081006 0 255 255
-0.349075 -0.090082 -0.083256 0 255 255
-0.349357 -0.088985 -0.083256 0 255 255
-0.330735 -0.083136 -0.078755 0 255 255
-0.330981 -0.082155 -0.078755 0 255 255
-0.340716 -0.083373 -0.081006 0 255 255
-0.350447 -0.084588 -0.083256 0 255 255
-0.331754 -0.078974 -0.078755 0 255 255
-0.322515 -0.075704 -0.076505 0 255 255
-0.322751 -0.074691 -0.076505 0 255 255
-0.313484 -0.07151 -0.074255 0 255 255
-0.285189 -0.064113 -0.067505 0 255 255
-0.285389 -0.063217 -0.067505 0 255 255
-0.285586 -0.06232 -0.067505 0 255 255
-0.266728 -0.057328 -0.063004 0 255 255
-0.257375 -0.054472 -0.060754 0 255 255
-0.257545 -0.053663 -0.060754 0 255 255
-0.267257 -0.054811 -0.063004 0 255 255
-0.267428 -0.053971 -0.063004 0 255 255
-0.277153 -0.055029 -0.065255 0 255 255
-0.286887 -0.056025 -0.067505 0 255 255
-0.287062 -0.055124 -0.067505 0 255 255
-0.287234 -0.054221 -0.067505 0 255 255
-0.306563 -0.056873 -0.072005 0 255 255
-0.316325 -0.057657 -0.074255 0 255 255
-0.326278 -0.057355 -0.076505 0 255 255
-0.326457 -0.05633 -0.076505 0 255 255
-0.307418 -0.052051 -0.072005 0 255 255
-0.317192 -0.052681 -0.074255 0 255 255
-0.317356 -0.051685 -0.074255 0 255 255
-0.307895 -0.049151 -0.072005 0 255 255
-0.298422 -0.046678 -0.069755 0 255 255
-0.298567 -0.04574 -0.069755 0 255 255
-0.308345 -0.046247 -0.072005 0 255 255
-0.298848 -0.043864 -0.069755 0 255 255
-0.298985 -0.042925 -0.069755 0 255 255
-0.318416 -0.044694 -0.074255 0 255 255
-0.289595 -0.039721 -0.067505 0 255 255
-0.289718 -0.038811 -0.067505 0 255 255
-0.2995 -0.039164 -0.069755 0 255 255
-0.289957 -0.03699 -0.067505 0 255 255
-0.290071 -0.036079 -0.067505 0 255 255
-0.280511 -0.033995 -0.065255 0 255 255
-0.27094 -0.031972 -0.063004 0 255 255
-0.271039 -0.031121 -0.063004 0 255 255
-0.280818 -0.03135 -0.065255 0 255 255
-0.290602 -0.031518 -0.067505 0 255 255
-0.28101 -0.029585 -0.065255 0 255 255
-0.290795 -0.029692 -0.067505 0 255 255
-0.28119 -0.027819 -0.065255 0 255 255
