ply
format ascii 1.0
element vertex 1280
property float x
property float y
property float z
property uchar red
property uchar green
property uchar blue
end_header
-0.189179 -0.957179 -0.260999 0 255 255
-0.192185 -0.95658 -0.260999 0 255 255
-0.197122 -0.965436 -0.263583 0 255 255
-0.200154 -0.964812 -0.263583 0 255 255
-0.203184 -0.964179 -0.263583 0 255 255
-0.206212 -0.963535 -0.263583 0 255 255
-0.207187 -0.953443 -0.260999 0 255 255
-0.212262 -0.962221 -0.263583 0 255 255
-0.21334 -0.952085 -0.260999 0 255 255
-0.21633 -0.95141 -0.260999 0 255 255
-0.221489 -0.960139 -0.263583 0 255 255
-0.226705 -0.968845 -0.266167 0 255 255
-0.229917 -0.968087 -0.266167 0 255 255
-0.232957 -0.96736 -0.266167 0 255 255
-0.235995 -0.966624 -0.266167 0 255 255
-0.241351 -0.975255 -0.268751 0 255 255
-0.244414 -0.974492 -0.268751 0 255 255
-0.245095 -0.964357 -0.266167 0 255 255
-0.248291 -0.963539 -0.266167 0 255 255
-0.251317 -0.962754 -0.266167 0 255 255
-0.256979 -0.971254 -0.268751 0 255 255
-0.25986 -0.970487 -0.268751 0 255 255
-0.260379 -0.960343 -0.266167 0 255 255
-0.265952 -0.968835 -0.268751 0 255 255
-0.269164 -0.967948 -0.268751 0 255 255
-0.274821 -0.976397 -0.271335 0 255 255
-0.27524 -0.966238 -0.268751 0 255 255
-0.28095 -0.974651 -0.271335 0 255 255
-0.284011 -0.973763 -0.271335 0 255 255
-0.287068 -0.972866 -0.271335 0 255 255
-0.290123 -0.97196 -0.271335 0 255 255
-0.293175 -0.971043 -0.271335 0 255 255
-0.296394 -0.970066 -0.271335 0 255 255
-0.29944 -0.96913 -0.271335 0 255 255
-0.302483 -0.968185 -0.271335 0 255 255
-0.302613 -0.958018 -0.268751 0 255 255
-0.308729 -0.966211 -0.271335 0 255 255
-0.311763 -0.965236 -0.271335 0 255 255
-0.314794 -0.964252 -0.271335 0 255 255
-0.320848 -0.972432 -0.273919 0 255 255
-0.321014 -0.962199 -0.271335 0 255 255
-0.327121 -0.97034 -0.273919 0 255 255
-0.330168 -0.969308 -0.273919 0 255 255
-0.336355 -0.9774 -0.276503 0 255 255
-0.336252 -0.967214 -0.273919 0 255 255
-0.34249 -0.975267 -0.276503 0 255 255
-0.345552 -0.974187 -0.276503 0 255 255
-0.34861 -0.973096 -0.276503 0 255 255
-0.351666 -0.971996 -0.276503 0 255 255
-0.354718 -0.970887 -0.276503 0 255 255
-0.36111 -0.978831 -0.279088 0 255 255
-0.364183 -0.977692 -0.279088 0 255 255
-0.370825 -0.98552 -0.281672 0 255 255
-0.370489 -0.975319 -0.279088 0 255 255
-0.373551 -0.974151 -0.279088 0 255 255
-0.37661 -0.972972 -0.279088 0 255 255
-0.383351 -0.980716 -0.281672 0 255 255
-0.382885 -0.97052 -0.279088 0 255 255
-0.389506 -0.978287 -0.281672 0 255 255
-0.392577 -0.977059 -0.281672 0 255 255
-0.395645 -0.975821 -0.281672 0 255 255
-0.398708 -0.974573 -0.281672 0 255 255
-0.401938 -0.973246 -0.281672 0 255 255
-0.408709 -0.980895 -0.284256 0 255 255
-0.411789 -0.979606 -0.284256 0 255 255
-0.414864 -0.978308 -0.284256 0 255 255
-0.421735 -0.985882 -0.28684 0 255 255
-0.42483 -0.984552 -0.28684 0 255 255
-0.427921 -0.983212 -0.28684 0 255 255
-0.431179 -0.981788 -0.28684 0 255 255
-0.434261 -0.980428 -0.28684 0 255 255
-0.437339 -0.979059 -0.28684 0 255 255
-0.444381 -0.986488 -0.289424 0 255 255
-0.447478 -0.985088 -0.289424 0 255 255
-0.458616 -1.00124 -0.294592 0 255 255
-0.461759 -0.999797 -0.294592 0 255 255
-0.456913 -0.980747 -0.289424 0 255 255
-0.468206 -0.996794 -0.294592 0 255 255
-0.467201 -0.986587 -0.292008 0 255 255
-0.470298 -0.985115 -0.292008 0 255 255
-0.47758 -0.992337 -0.294592 0 255 255
-0.480695 -0.990832 -0.294592 0 255 255
-0.483805 -0.989317 -0.294592 0 255 255
-0.486911 -0.987792 -0.294592 0 255 255
-0.490184 -0.986172 -0.294592 0 255 255
-0.497607 -0.993264 -0.297177 0 255 255
-0.500898 -0.991609 -0.297177 0 255 255
-0.50401 -0.99003 -0.297177 0 255 255
-0.507118 -0.988442 -0.297177 0 255 255
-0.514484 -0.995515 -0.299761 0 255 255
-0.517782 -0.993803 -0.299761 0 255 255
-0.525392 -1.00073 -0.302345 0 255 255
-0.528708 -0.998977 -0.302345 0 255 255
-0.53167 -0.997404 -0.302345 0 255 255
-0.539371 -1.00424 -0.304929 0 255 255
-0.547121 -1.01104 -0.307513 0 255 255
-0.550295 -1.00931 -0.307513 0 255 255
-0.553463 -1.00758 -0.307513 0 255 255
-0.56148 -1.01419 -0.310097 0 255 255
-0.564664 -1.01242 -0.310097 0 255 255
-0.572573 -1.01906 -0.312681 0 255 255
-0.585289 -1.03407 -0.31785 0 255 255
-0.181135 -0.250504 -0.082693 0 255 255
-0.187606 -0.257744 -0.085277 0 255 255
-0.188415 -0.257153 -0.085277 0 255 255
-0.17202 -0.233236 -0.077524 0 255 255
-0.161235 -0.217182 -0.072356 0 255 255
-0.150386 -0.201171 -0.067188 0 255 255
-0.151017 -0.200698 -0.067188 0 255 255
-0.169145 -0.223325 -0.07494 0 255 255
-0.158132 -0.207428 -0.069772 0 255 255
-0.158783 -0.20693 -0.069772 0 255 255
-0.153527 -0.198784 -0.067188 0 255 255
-0.154151 -0.198301 -0.067188 0 255 255
-0.160726 -0.205424 -0.069772 0 255 255
-0.149417 -0.189739 -0.064604 0 255 255
-0.138042 -0.174103 -0.059435 0 255 255
-0.144614 -0.181219 -0.062019 0 255 255
-0.139133 -0.173232 -0.059435 0 255 255
-0.145749 -0.180307 -0.062019 0 255 255
-0.152412 -0.187342 -0.064604 0 255 255
-0.165239 -0.201811 -0.069772 0 255 255
-0.165908 -0.201262 -0.069772 0 255 255
-0.154203 -0.18587 -0.064604 0 255 255
-0.154786 -0.185385 -0.064604 0 255 255
-0.167797 -0.19969 -0.069772 0 255 255
-0.174662 -0.206538 -0.072356 0 255 255
-0.194093 -0.228058 -0.080108 0 255 255
-0.207377 -0.242121 -0.085277 0 255 255
-0.220751 -0.256103 -0.090445 0 255 255
-0.221554 -0.255408 -0.090445 0 255 255
-0.2224 -0.254672 -0.090445 0 255 255
-0.235953 -0.268485 -0.095613 0 255 255
-0.236749 -0.267784 -0.095613 0 255 255
-0.256903 -0.288646 -0.103366 0 255 255
-0.270699 -0.302229 -0.108534 0 255 255
-0.271647 -0.301377 -0.108534 0 255 255
-0.279083 -0.307678 -0.111118 0 255 255
-0.280048 -0.306799 -0.111118 0 255 255
-0.274475 -0.298804 -0.108534 0 255 255
-0.275465 -0.297892 -0.108534 0 255 255
-0.269818 -0.289953 -0.10595 0 255 255
-0.277331 -0.296155 -0.108534 0 255 255
-0.27826 -0.295282 -0.108534 0 255 255
-0.265892 -0.280387 -0.103366 0 255 255
-0.260102 -0.272562 -0.100782 0 255 255
-0.261004 -0.271698 -0.100782 0 255 255
-0.275285 -0.284768 -0.10595 0 255 255
-0.269442 -0.276977 -0.103366 0 255 255
-0.277069 -0.283032 -0.10595 0 255 255
-0.298295 -0.302806 -0.113702 0 255 255
-0.299245 -0.301868 -0.113702 0 255 255
-0.293421 -0.294036 -0.111118 0 255 255
-0.301188 -0.299929 -0.113702 0 255 255
-0.295313 -0.292135 -0.111118 0 255 255
-0.303067 -0.298031 -0.113702 0 255 255
-0.297092 -0.290325 -0.111118 0 255 255
-0.318794 -0.309581 -0.118871 0 255 255
-0.319765 -0.308578 -0.118871 0 255 255
-0.320733 -0.307572 -0.118871 0 255 255
-0.321751 -0.306506 -0.118871 0 255 255
-0.322712 -0.305494 -0.118871 0 255 255
-0.32367 -0.304479 -0.118871 0 255 255
-0.317568 -0.296863 -0.116286 0 255 255
-0.318499 -0.295864 -0.116286 0 255 255
-0.319427 -0.294862 -0.116286 0 255 255
-0.327471 -0.300387 -0.118871 0 255 255
-0.321274 -0.292849 -0.116286 0 255 255
-0.307872 -0.278868 -0.111118 0 255 255
-0.323107 -0.290825 -0.116286 0 255 255
-0.316868 -0.283313 -0.113702 0 255 255
-0.317757 -0.282316 -0.113702 0 255 255
-0.318642 -0.281316 -0.113702 0 255 255
-0.319524 -0.280314 -0.113702 0 255 255
-0.320403 -0.279309 -0.113702 0 255 255
-0.321279 -0.278301 -0.113702 0 255 255
-0.314878 -0.270933 -0.111118 0 255 255
-0.32307 -0.27622 -0.113702 0 255 255
-0.323984 -0.275148 -0.113702 0 255 255
-0.324799 -0.274185 -0.113702 0 255 255
-0.303455 -0.254539 -0.10595 0 255 255
-0.319094 -0.265954 -0.111118 0 255 255
-0.319928 -0.26495 -0.111118 0 255 255
-0.3133 -0.257805 -0.108534 0 255 255
-0.299193 -0.244538 -0.103366 0 255 255
-0.292461 -0.237507 -0.100782 0 255 255
-0.293206 -0.236587 -0.100782 0 255 255
-0.278873 -0.22358 -0.095613 0 255 255
-0.272018 -0.216683 -0.093029 0 255 255
-0.272698 -0.215828 -0.093029 0 255 255
-0.273374 -0.21497 -0.093029 0 255 255
-0.274048 -0.21411 -0.093029 0 255 255
-0.27472 -0.213248 -0.093029 0 255 255
-0.267739 -0.206484 -0.090445 0 255 255
-0.276091 -0.21147 -0.093029 0 255 255
-0.269066 -0.204751 -0.090445 0 255 255
-0.269708 -0.203905 -0.090445 0 255 255
-0.278072 -0.208858 -0.093029 0 255 255
-0.278727 -0.207983 -0.093029 0 255 255
-0.279379 -0.207107 -0.093029 0 255 255
-0.272249 -0.2005 -0.090445 0 255 255
-0.280674 -0.205347 -0.093029 0 255 255
-0.281318 -0.204464 -0.093029 0 255 255
-0.274161 -0.197877 -0.090445 0 255 255
-0.274782 -0.197015 -0.090445 0 255 255
-0.275399 -0.19615 -0.090445 0 255 255
-0.276014 -0.195284 -0.090445 0 255 255
-0.268723 -0.188861 -0.087861 0 255 255
-0.269315 -0.188016 -0.087861 0 255 255
-0.269904 -0.187169 -0.087861 0 255 255
-0.270491 -0.18632 -0.087861 0 255 255
-0.263102 -0.180015 -0.085277 0 255 255
-0.263697 -0.179141 -0.085277 0 255 255
-0.264259 -0.178312 -0.085277 0 255 255
-0.264818 -0.177481 -0.085277 0 255 255
-0.265374 -0.176648 -0.085277 0 255 255
-0.265928 -0.175813 -0.085277 0 255 255
-0.258404 -0.169675 -0.082693 0 255 255
-0.258935 -0.168862 -0.082693 0 255 255
-0.259465 -0.168048 -0.082693 0 255 255
-0.251895 -0.161962 -0.080108 0 255 255
-0.260544 -0.166369 -0.082693 0 255 255
-0.261066 -0.16555 -0.082693 0 255 255
-0.245235 -0.154433 -0.077524 0 255 255
-0.25391 -0.158784 -0.080108 0 255 255
-0.254408 -0.157985 -0.080108 0 255 255
-0.24668 -0.152115 -0.077524 0 255 255
-0.238918 -0.146295 -0.07494 0 255 255
-0.239377 -0.145543 -0.07494 0 255 255
-0.248103 -0.149783 -0.077524 0 255 255
-0.248572 -0.149003 -0.077524 0 255 255
-0.240738 -0.143281 -0.07494 0 255 255
-0.257847 -0.152308 -0.080108 0 255 255
-0.249991 -0.14661 -0.077524 0 255 255
-0.25045 -0.145824 -0.077524 0 255 255
-0.242544 -0.140202 -0.07494 0 255 255
-0.242983 -0.139439 -0.07494 0 255 255
-0.251813 -0.143457 -0.077524 0 255 255
-0.252263 -0.142665 -0.077524 0 255 255
-0.25271 -0.141872 -0.077524 0 255 255
-0.253179 -0.141033 -0.077524 0 255 255
-0.270529 -0.149586 -0.082693 0 255 255
-0.270997 -0.148736 -0.082693 0 255 255
-0.26298 -0.143262 -0.080108 0 255 255
-0.263429 -0.142435 -0.080108 0 255 255
-0.272387 -0.146175 -0.082693 0 255 255
-0.264319 -0.140777 -0.080108 0 255 255
-0.26476 -0.139946 -0.080108 0 255 255
-0.273778 -0.143554 -0.082693 0 255 255
-0.274227 -0.142693 -0.082693 0 255 255
-0.274699 -0.141783 -0.082693 0 255 255
-0.266521 -0.136562 -0.080108 0 255 255
-0.266949 -0.135724 -0.080108 0 255 255
-0.258749 -0.130533 -0.077524 0 255 255
-0.267796 -0.134044 -0.080108 0 255 255
-0.268216 -0.133202 -0.080108 0 255 255
-0.277323 -0.13658 -0.082693 0 255 255
-0.29511 -0.14419 -0.087861 0 255 255
-0.286868 -0.139048 -0.085277 0 255 255
-0.287304 -0.138146 -0.085277 0 255 255
-0.287736 -0.137243 -0.085277 0 255 255
-0.305631 -0.144601 -0.090445 0 255 255
-0.341064 -0.160057 -0.100782 0 255 255
-0.36784 -0.171214 -0.108534 0 255 255
-0.377147 -0.174106 -0.111118 0 255 255
-0.395259 -0.180964 -0.116286 0 255 255
-0.404654 -0.183644 -0.118871 0 255 255
-0.405229 -0.182372 -0.118871 0 255 255
-0.414621 -0.185035 -0.121455 0 255 255
-0.406366 -0.179822 -0.118871 0 255 255
-0.424622 -0.186308 -0.124039 0 255 255
-0.416347 -0.181119 -0.121455 0 255 255
-0.425784 -0.183636 -0.124039 0 255 255
-0.426359 -0.182297 -0.124039 0 255 255
-0.42693 -0.180957 -0.124039 0 255 255
-0.41862 -0.1758 -0.121455 0 255 255
-0.401334 -0.167059 -0.116286 0 255 255
-0.419687 -0.17324 -0.121455 0 255 255
-0.411288 -0.168262 -0.118871 0 255 255
-0.402862 -0.16334 -0.116286 0 255 255
-0.394437 -0.158403 -0.113702 0 255 255
-0.42186 -0.167878 -0.121455 0 255 255
-0.404411 -0.159465 -0.116286 0 255 255
-0.395912 -0.154678 -0.113702 0 255 255
-0.378378 -0.146459 -0.108534 0 255 255
-0.351777 -0.134894 -0.100782 0 255 255
-0.352199 -0.133788 -0.100782 0 255 255
-0.334534 -0.125876 -0.095613 0 255 255
-0.316824 -0.118078 -0.090445 0 255 255
-0.299068 -0.110391 -0.085277 0 255 255
-0.308486 -0.112768 -0.087861 0 255 255
-0.299756 -0.10851 -0.085277 0 255 255
-0.281925 -0.100999 -0.080108 0 255 255
-0.282241 -0.100113 -0.080108 0 255 255
-0.300783 -0.105628 -0.085277 0 255 255
-0.301114 -0.104682 -0.085277 0 255 255
-0.310576 -0.106879 -0.087861 0 255 255
-0.301766 -0.102788 -0.085277 0 255 255
-0.320395 -0.108012 -0.090445 0 255 255
-0.311569 -0.103947 -0.087861 0 255 255
-0.330241 -0.109025 -0.093029 0 255 255
-0.321399 -0.104987 -0.090445 0 255 255
-0.321727 -0.103977 -0.090445 0 255 255
-0.312851 -0.100024 -0.087861 0 255 255
-0.313181 -0.098986 -0.087861 0 255 255
-0.31349 -0.098002 -0.087861 0 255 255
-0.304567 -0.094163 -0.085277 0 255 255
-0.304862 -0.093206 -0.085277 0 255 255
-0.305153 -0.092247 -0.085277 0 255 255
-0.314697 -0.094055 -0.087861 0 255 255
-0.314991 -0.093065 -0.087861 0 255 255
-0.324555 -0.094783 -0.090445 0 255 255
-0.324851 -0.093763 -0.090445 0 255 255
-0.325144 -0.092742 -0.090445 0 255 255
-0.325434 -0.09172 -0.090445 0 255 255
-0.316414 -0.088106 -0.087861 0 255 255
-0.307389 -0.084496 -0.085277 0 255 255
-0.307653 -0.08353 -0.085277 0 255 255
-0.317245 -0.085065 -0.087861 0 255 255
-0.308172 -0.081595 -0.085277 0 255 255
-0.299081 -0.078183 -0.082693 0 255 255
-0.299325 -0.077243 -0.082693 0 255 255
-0.290205 -0.073918 -0.080108 0 255 255
-0.281067 -0.070651 -0.077524 0 255 255
-0.262535 -0.065117 -0.072356 0 255 255
-0.253354 -0.061995 -0.069772 0 255 255
-0.253548 -0.061199 -0.069772 0 255 255
-0.244341 -0.058165 -0.067188 0 255 255
-0.244533 -0.057355 -0.067188 0 255 255
-0.254124 -0.058763 -0.069772 0 255 255
-0.254307 -0.057964 -0.069772 0 255 255
-0.245062 -0.055047 -0.067188 0 255 255
-0.254666 -0.056365 -0.069772 0 255 255
-0.235965 -0.051449 -0.064604 0 255 255
-0.24557 -0.052735 -0.067188 0 255 255
-0.245735 -0.051964 -0.067188 0 255 255
-0.255354 -0.05316 -0.069772 0 255 255
-0.274448 -0.056236 -0.07494 0 255 255
-0.312502 -0.063011 -0.085277 0 255 255
-0.345135 -0.042744 -0.093029 0 255 255
-0.297314 -0.035874 -0.080108 0 255 255
-0.259048 -0.030431 -0.069772 0 255 255
-0.297534 -0.034005 -0.080108 0 255 255
-0.346101 -0.034057 -0.093029 0 255 255
-0.326978 -0.031081 -0.087861 0 255 255
-0.307834 -0.028286 -0.082693 0 255 255
-0.327167 -0.029026 -0.087861 0 255 255
-0.299174 -0.013324 -0.080108 0 255 255
-0.260606 -0.010786 -0.069772 0 255 255
-0.279945 -0.010705 -0.07494 0 255 255
-0.299286 -0.010504 -0.080108 0 255 255
-0.280059 -0.007138 -0.07494 0 255 255
-0.280081 -0.006209 -0.07494 0 255 255
-0.260781 -0.005007 -0.069772 0 255 255
-0.260796 -0.004188 -0.069772 0 255 255
-0.251148 -0.003244 -0.067188 0 255 255
-0.260817 -0.002549 -0.069772 0 255 255
-0.260823 -0.00173 -0.069772 0 255 255
-0.251167 -0.000877 -0.067188 0 255 255
-0.260829 -9.1e-05 -0.069772 0 255 255
-0.231847 0.000647 -0.062019 0 255 255
-0.212524 0.001261 -0.056851 0 255 255
-0.212519 0.001929 -0.056851 0 255 255
-0.231831 0.002832 -0.062019 0 255 255
-0.222162 0.003412 -0.059435 0 255 255
-0.212491 0.003932 -0.056851 0 255 255
-0.212478 0.004599 -0.056851 0 255 255
-0.212462 0.005267 -0.056851 0 255 255
-0.2221 0.006243 -0.059435 0 255 255
-0.212424 0.006639 -0.056851 0 255 255
-0.222057 0.007638 -0.059435 0 255 255
-0.231685 0.008698 -0.062019 0 255 255
-0.222004 0.009033 -0.059435 0 255 255
-0.221975 0.00973 -0.059435 0 255 255
-0.221943 0.010428 -0.059435 0 255 255
-0.231557 0.011609 -0.062019 0 255 255
-0.23152 0.012336 -0.062019 0 255 255
-0.241125 0.013608 -0.064604 0 255 255
-0.250724 0.01494 -0.067188 0 255 255
-0.250676 0.015727 -0.067188 0 255 255
-0.260265 0.01715 -0.069772 0 255 255
-0.269847 0.018633 -0.072356 0 255 255
-0.269787 0.019481 -0.072356 0 255 255
-0.279358 0.021054 -0.07494 0 255 255
-0.269659 0.021175 -0.072356 0 255 255
-0.288848 0.023595 -0.077524 0 255 255
-0.308024 0.026136 -0.082693 0 255 255
-0.30794 0.027104 -0.082693 0 255 255
-0.307854 0.028071 -0.082693 0 255 255
-0.307764 0.029038 -0.082693 0 255 255
-0.288442 0.02813 -0.077524 0 255 255
-0.288352 0.029035 -0.077524 0 255 255
-0.288259 0.029941 -0.077524 0 255 255
-0.278558 0.029819 -0.07494 0 255 255
-0.259259 0.028577 -0.069772 0 255 255
-0.278366 0.031568 -0.07494 0 255 255
-0.278259 0.032491 -0.07494 0 255 255
-0.258973 0.031064 -0.069772 0 255 255
-0.268462 0.033058 -0.072356 0 255 255
-0.287409 0.037226 -0.077524 0 255 255
-0.287291 0.038129 -0.077524 0 255 255
-0.296742 0.040332 -0.080108 0 255 255
-0.277478 0.038602 -0.07494 0 255 255
-0.286919 0.040835 -0.077524 0 255 255
-0.27723 0.040345 -0.07494 0 255 255
-0.296212 0.044058 -0.080108 0 255 255
-0.276971 0.042086 -0.07494 0 255 255
-0.276701 0.043825 -0.07494 0 255 255
-0.267025 0.043153 -0.072356 0 255 255
-0.295483 0.048705 -0.080108 0 255 255
-0.295329 0.049633 -0.080108 0 255 255
-0.266607 0.045668 -0.072356 0 255 255
-0.256945 0.044844 -0.069772 0 255 255
-0.247292 0.04396 -0.067188 0 255 255
-0.256658 0.046458 -0.069772 0 255 255
-0.266012 0.049014 -0.072356 0 255 255
-0.237372 0.044509 -0.064604 0 255 255
-0.256209 0.048875 -0.069772 0 255 255
-0.237087 0.045999 -0.064604 0 255 255
-0.236942 0.046744 -0.064604 0 255 255
-0.227322 0.045588 -0.062019 0 255 255
-0.227178 0.046302 -0.062019 0 255 255
-0.24595 0.050934 -0.067188 0 255 255
-0.274139 0.05772 -0.07494 0 255 255
-0.283403 0.060601 -0.077524 0 255 255
-0.283212 0.061491 -0.077524 0 255 255
-0.283017 0.062381 -0.077524 0 255 255
-0.263965 0.059052 -0.072356 0 255 255
-0.254358 0.057742 -0.069772 0 255 255
-0.254175 0.058541 -0.069772 0 255 255
-0.25399 0.059339 -0.069772 0 255 255
-0.235002 0.055682 -0.064604 0 255 255
-0.225433 0.054163 -0.062019 0 255 255
-0.215876 0.052585 -0.059435 0 255 255
-0.215709 0.053263 -0.059435 0 255 255
-0.20617 0.051595 -0.056851 0 255 255
-0.196643 0.049868 -0.054267 0 255 255
-0.224554 0.057698 -0.062019 0 255 255
-0.224372 0.058403 -0.062019 0 255 255
-0.205505 0.054182 -0.056851 0 255 255
-0.205334 0.054827 -0.056851 0 255 255
-0.20516 0.055472 -0.056851 0 255 255
-0.22362 0.061218 -0.062019 0 255 255
-0.204808 0.05676 -0.056851 0 255 255
-0.204629 0.057403 -0.056851 0 255 255
-0.223033 0.063322 -0.062019 0 255 255
-0.259972 0.074693 -0.072356 0 255 255
-0.204078 0.059329 -0.056851 0 255 255
-0.222427 0.065421 -0.062019 0 255 255
-0.249997 0.074385 -0.069772 0 255 255
-0.240512 0.072386 -0.067188 0 255 255
-0.27725 0.084394 -0.077524 0 255 255
-0.295449 0.090949 -0.082693 0 255 255
-0.31361 0.097618 -0.087861 0 255 255
-0.322516 0.101503 -0.090445 0 255 255
-0.31299 0.099587 -0.087861 0 255 255
-0.321872 0.103528 -0.090445 0 255 255
-0.358293 0.116486 -0.100782 0 255 255
-0.376281 0.123642 -0.10595 0 255 255
-0.403395 0.133957 -0.113702 0 255 255
-0.402972 0.135224 -0.113702 0 255 255
-0.420843 0.142693 -0.118871 0 255 255
-0.429531 0.147145 -0.121455 0 255 255
-0.429067 0.148494 -0.121455 0 255 255
-0.419479 0.146653 -0.118871 0 255 255
-0.428125 0.151187 -0.121455 0 255 255
-0.436747 0.155776 -0.124039 0 255 255
-0.436256 0.157148 -0.124039 0 255 255
-0.43576 0.158518 -0.124039 0 255 255
-0.43526 0.159886 -0.124039 0 255 255
-0.45287 0.167971 -0.129207 0 255 255
-0.434218 0.162693 -0.124039 0 255 255
-0.44274 0.167474 -0.126623 0 255 255
-0.433187 0.165418 -0.124039 0 255 255
-0.441679 0.170253 -0.126623 0 255 255
-0.441172 0.171563 -0.126623 0 255 255
-0.440631 0.172948 -0.126623 0 255 255
-0.440086 0.174331 -0.126623 0 255 255
-0.448474 0.179377 -0.129207 0 255 255
-0.438951 0.177169 -0.126623 0 255 255
-0.438392 0.178548 -0.126623 0 255 255
-0.437829 0.179924 -0.126623 0 255 255
-0.446185 0.184998 -0.129207 0 255 255
-0.445602 0.186399 -0.129207 0 255 255
-0.445014 0.187798 -0.129207 0 255 255
-0.435533 0.185411 -0.126623 0 255 255
-0.443825 0.19059 -0.129207 0 255 255
-0.43436 0.188144 -0.126623 0 255 255
-0.424914 0.18564 -0.124039 0 255 255
-0.424329 0.186974 -0.124039 0 255 255
-0.423739 0.188307 -0.124039 0 255 255
-0.423146 0.189637 -0.124039 0 255 255
-0.413745 0.186987 -0.121455 0 255 255
-0.413155 0.188286 -0.121455 0 255 255
-0.412562 0.189583 -0.121455 0 255 255
-0.411964 0.190878 -0.121455 0 255 255
-0.411362 0.192171 -0.121455 0 255 255
-0.410757 0.193463 -0.121455 0 255 255
-0.40142 0.190608 -0.118871 0 255 255
-0.392106 0.187697 -0.116286 0 255 255
-0.400215 0.193127 -0.118871 0 255 255
-0.399606 0.194383 -0.118871 0 255 255
-0.398993 0.195638 -0.118871 0 255 255
-0.398377 0.19689 -0.118871 0 255 255
-0.389109 0.193833 -0.116286 0 255 255
-0.397132 0.199389 -0.118871 0 255 255
-0.387884 0.196274 -0.116286 0 255 255
-0.395871 0.20188 -0.118871 0 255 255
-0.386643 0.198708 -0.116286 0 255 255
-0.386052 0.199854 -0.116286 0 255 255
-0.385387 0.201133 -0.116286 0 255 255
-0.393303 0.206839 -0.118871 0 255 255
-0.392651 0.208074 -0.118871 0 255 255
-0.392032 0.209238 -0.118871 0 255 255
-0.391373 0.210468 -0.118871 0 255 255
-0.382216 0.207095 -0.116286 0 255 255
-0.381527 0.208361 -0.116286 0 255 255
-0.372407 0.204902 -0.113702 0 255 255
-0.388622 0.215505 -0.118871 0 255 255
-0.379547 0.211948 -0.116286 0 255 255
-0.387298 0.217875 -0.118871 0 255 255
-0.38665 0.219024 -0.118871 0 255 255
-0.385922 0.220304 -0.118871 0 255 255
-0.376853 0.2167 -0.116286 0 255 255
-0.38453 0.222725 -0.118871 0 255 255
-0.392173 0.2288 -0.121455 0 255 255
-0.391452 0.230031 -0.121455 0 255 255
-0.390727 0.231259 -0.121455 0 255 255
-0.398297 0.237432 -0.124039 0 255 255
-0.380984 0.228737 -0.118871 0 255 255
-0.38853 0.234932 -0.121455 0 255 255
-0.38779 0.236151 -0.121455 0 255 255
-0.387047 0.237368 -0.121455 0 255 255
-0.386299 0.238583 -0.121455 0 255 255
-0.401954 0.25 -0.126623 0 255 255
-0.40121 0.251191 -0.126623 0 255 255
-0.400419 0.25245 -0.126623 0 255 255
-0.399624 0.253707 -0.126623 0 255 255
-0.406964 0.260164 -0.129207 0 255 255
-0.398022 0.256213 -0.126623 0 255 255
-0.397215 0.257462 -0.126623 0 255 255
-0.404494 0.263988 -0.129207 0 255 255
-0.411736 0.270563 -0.131791 0 255 255
-0.410837 0.271927 -0.131791 0 255 255
-0.401942 0.267859 -0.129207 0 255 255
-0.417191 0.279812 -0.134375 0 255 255
-0.408304 0.275716 -0.131791 0 255 255
-0.399447 0.271566 -0.129207 0 255 255
-0.414535 0.283732 -0.134375 0 255 255
-0.437506 0.301477 -0.142128 0 255 255
-0.436557 0.30285 -0.142128 0 255 255
-0.435603 0.30422 -0.142128 0 255 255
-0.442548 0.311143 -0.144712 0 255 255
-0.449453 0.318113 -0.147296 0 255 255
-0.456319 0.325129 -0.14988 0 255 255
-0.447446 0.32093 -0.147296 0 255 255
-0.462099 0.333645 -0.152465 0 255 255
-0.453235 0.329415 -0.14988 0 255 255
-0.452197 0.330837 -0.14988 0 255 255
-0.435599 0.320799 -0.144712 0 255 255
-0.434589 0.322166 -0.144712 0 255 255
-0.441317 0.329307 -0.147296 0 255 255
-0.432556 0.32489 -0.144712 0 255 255
-0.423827 0.320422 -0.142128 0 255 255
-0.415131 0.315902 -0.139544 0 255 255
-0.429475 0.328952 -0.144712 0 255 255
-0.420789 0.324402 -0.142128 0 255 255
-0.419767 0.325722 -0.142128 0 255 255
-0.395902 0.309201 -0.134375 0 255 255
-0.402523 0.316413 -0.13696 0 255 255
-0.386375 0.305689 -0.131791 0 255 255
-0.385413 0.306901 -0.131791 0 255 255
-0.384447 0.30811 -0.131791 0 255 255
-0.383477 0.309316 -0.131791 0 255 255
-0.390003 0.316608 -0.134375 0 255 255
-0.381526 0.31172 -0.131791 0 255 255
-0.388006 0.319052 -0.134375 0 255 255
-0.394444 0.326429 -0.13696 0 255 255
-0.385994 0.321484 -0.134375 0 255 255
-0.399789 0.335106 -0.139544 0 255 255
-0.398734 0.336361 -0.139544 0 255 255
-0.40504 0.343864 -0.142128 0 255 255
-0.403958 0.345135 -0.142128 0 255 255
-0.395547 0.340104 -0.139544 0 255 255
-0.387171 0.335023 -0.13696 0 255 255
-0.400687 0.348926 -0.142128 0 255 255
-0.399589 0.350183 -0.142128 0 255 255
-0.398548 0.351367 -0.142128 0 255 255
-0.404606 0.359099 -0.144712 0 255 255
-0.403476 0.360369 -0.144712 0 255 255
-0.423829 0.381082 -0.152465 0 255 255
-0.422697 0.382338 -0.152465 0 255 255
-0.407205 0.370658 -0.147296 0 255 255
-0.406104 0.371865 -0.147296 0 255 255
-0.412038 0.379685 -0.14988 0 255 255
-0.403759 0.374409 -0.147296 0 255 255
-0.388456 0.362494 -0.142128 0 255 255
-0.387315 0.363713 -0.142128 0 255 255
-0.38617 0.364928 -0.142128 0 255 255
-0.378021 0.359482 -0.139544 0 255 255
-0.37689 0.360668 -0.139544 0 255 255
-0.382714 0.368551 -0.142128 0 255 255
-0.388491 0.376474 -0.144712 0 255 255
-0.394223 0.384438 -0.147296 0 255 255
-0.406803 0.399206 -0.152465 0 255 255
-0.412421 0.40727 -0.155049 0 255 255
-0.404287 0.401754 -0.152465 0 255 255
-0.386034 0.432363 -0.155049 0 255 255
-0.384674 0.433573 -0.155049 0 255 255
-0.370533 0.420287 -0.14988 0 255 255
-0.362845 0.414183 -0.147296 0 255 255
-0.361542 0.415321 -0.147296 0 255 255
-0.360235 0.416454 -0.147296 0 255 255
-0.358925 0.417584 -0.147296 0 255 255
-0.357612 0.418709 -0.147296 0 255 255
-0.350116 0.412404 -0.144712 0 255 255
-0.367505 0.435654 -0.152465 0 255 255
-0.353723 0.422 -0.147296 0 255 255
-0.346213 0.415686 -0.144712 0 255 255
-0.357224 0.431656 -0.14988 0 255 255
-0.362002 0.440238 -0.152465 0 255 255
-0.354429 0.433954 -0.14988 0 255 255
-0.353064 0.435065 -0.14988 0 255 255
-0.357837 0.44363 -0.152465 0 255 255
-0.356441 0.444752 -0.152465 0 255 255
-0.343007 0.430755 -0.147296 0 255 255
-0.335658 0.424255 -0.144712 0 255 255
-0.322383 0.410118 -0.139544 0 255 255
-0.321093 0.411128 -0.139544 0 255 255
-0.3198 0.412135 -0.139544 0 255 255
-0.312606 0.405487 -0.13696 0 255 255
-0.317204 0.414136 -0.139544 0 255 255
-0.310052 0.407443 -0.13696 0 255 255
-0.314596 0.416121 -0.139544 0 255 255
-0.330692 0.44028 -0.147296 0 255 255
-0.311975 0.41809 -0.139544 0 255 255
-0.322166 0.434589 -0.144712 0 255 255
-0.315071 0.42782 -0.142128 0 255 255
-0.325133 0.444401 -0.147296 0 255 255
-0.323736 0.44542 -0.147296 0 255 255
-0.31668 0.438603 -0.144712 0 255 255
-0.298409 0.416046 -0.13696 0 255 255
-0.302706 0.424849 -0.139544 0 255 255
-0.295862 0.417861 -0.13696 0 255 255
-0.277875 0.395083 -0.129207 0 255 255
-0.276564 0.396003 -0.129207 0 255 255
-0.29472 0.430427 -0.139544 0 255 255
-0.32053 0.471291 -0.152465 0 255 255
-0.319047 0.472296 -0.152465 0 255 255
-0.317562 0.473296 -0.152465 0 255 255
-0.326788 0.490369 -0.157633 0 255 255
-0.319914 0.483337 -0.155049 0 255 255
-0.335021 0.490939 -0.13726 0 255 255
-0.322626 0.475802 -0.132759 0 255 255
-0.332016 0.492976 -0.13726 0 255 255
-0.335883 0.502115 -0.13951 0 255 255
-0.334304 0.503168 -0.13951 0 255 255
-0.327355 0.496083 -0.13726 0 255 255
-0.331136 0.505259 -0.13951 0 255 255
-0.324232 0.49813 -0.13726 0 255 255
-0.322665 0.499146 -0.13726 0 255 255
-0.321095 0.500158 -0.13726 0 255 255
-0.314285 0.492948 -0.135009 0 255 255
-0.115683 0.203226 -0.054004 0 255 255
-0.110251 0.195106 -0.051754 0 255 255
-0.114404 0.203949 -0.054004 0 255 255
-0.104283 0.187282 -0.049503 0 255 255
-0.108407 0.196136 -0.051754 0 255 255
-0.10779 0.196476 -0.051754 0 255 255
-0.116492 0.213928 -0.056254 0 255 255
-0.101921 0.188578 -0.049503 0 255 255
-0.119049 0.223617 -0.058504 0 255 255
-0.122898 0.232605 -0.060754 0 255 255
-0.107289 0.20778 -0.054004 0 255 255
-0.105326 0.208782 -0.054004 0 255 255
-1.95007 4.40059 -1.11158 0 255 255
-1.948 4.43346 -1.11833 0 255 255
-1.95741 4.49315 -1.13183 0 255 255
-1.94328 4.49928 -1.13183 0 255 255
-1.92914 4.50536 -1.13183 0 255 255
-1.90356 4.48449 -1.12508 0 255 255
-1.863 4.42759 -1.10933 0 255 255
-1.86409 4.46939 -1.11833 0 255 255
-1.86121 4.50223 -1.12508 0 255 255
-1.86632 4.55281 -1.13633 0 255 255
-1.87768 4.62184 -1.15208 0 255 255
-1.88862 4.69099 -1.16783 0 255 255
-1.78361 4.47065 -1.11158 0 255 255
-1.82329 4.61215 -1.14533 0 255 255
-1.81945 4.64507 -1.15208 0 255 255
-1.77312 4.56902 -1.13183 0 255 255
-1.78673 4.64732 -1.14983 0 255 255
-1.73051 4.54364 -1.12283 0 255 255
-1.68183 4.45789 -1.10033 0 255 255
-1.65759 4.43577 -1.09358 0 255 255
-1.64026 4.43182 -1.09133 0 255 255
-1.63381 4.45497 -1.09583 0 255 255
-1.62314 4.46923 -1.09808 0 255 255
-1.61568 4.49265 -1.10258 0 255 255
-1.59097 4.47044 -1.09583 0 255 255
-1.58987 4.51218 -1.10483 0 255 255
-1.5789 4.52635 -1.10708 0 255 255
-1.5591 4.5126 -1.10258 0 255 255
-1.55437 4.54513 -1.10933 0 255 255
-1.52759 4.51307 -1.10033 0 255 255
-1.51341 4.51785 -1.10033 0 255 255
-1.47775 4.45784 -1.08458 0 255 255
-1.46677 4.47172 -1.08683 0 255 255
-1.50084 4.62459 -1.12283 0 255 255
-1.46545 4.56434 -1.10708 0 255 255
-1.43046 4.50392 -1.09133 0 255 255
-1.4163 4.50839 -1.09133 0 255 255
-1.40213 4.51282 -1.09133 0 255 255
-1.39367 4.53583 -1.09583 0 255 255
-1.37737 4.53062 -1.09358 0 255 255
-1.36874 4.55359 -1.09808 0 255 255
-1.35166 4.54853 -1.09583 0 255 255
-1.3401 4.5621 -1.09808 0 255 255
-1.32305 4.55693 -1.09583 0 255 255
-1.34366 4.68282 -1.12508 0 255 255
-1.32894 4.68702 -1.12508 0 255 255
-1.30633 4.66302 -1.11833 0 255 255
-1.30207 4.70466 -1.12733 0 255 255
-1.307 4.78415 -1.14533 0 255 255
-1.28181 4.7506 -1.13633 0 255 255
-1.25935 4.72636 -1.12958 0 255 255
-1.24285 4.72065 -1.12733 0 255 255
-1.23291 4.74339 -1.13183 0 255 255
-1.22285 4.76612 -1.13633 0 255 255
-1.20308 4.75105 -1.13183 0 255 255
-1.30626 5.22745 -1.24434 0 255 255
-1.28283 5.20315 -1.23759 0 255 255
-1.23424 5.0746 -1.20608 0 255 255
-1.27057 5.29637 -1.25784 0 255 255
-1.25392 5.30034 -1.25784 0 255 255
-1.25497 5.38017 -1.27584 0 255 255
-1.24243 5.40307 -1.28034 0 255 255
-1.22545 5.40695 -1.28034 0 255 255
-1.19997 5.37274 -1.27134 0 255 255
-1.19564 5.43357 -1.28484 0 255 255
-1.1765 5.42778 -1.28259 0 255 255
-1.15945 5.43145 -1.28259 0 255 255
-1.14238 5.43507 -1.28259 0 255 255
-1.12727 5.44817 -1.28484 0 255 255
-1.11305 5.46104 -1.28709 0 255 255
-1.09397 5.45495 -1.28484 0 255 255
-1.07871 5.46792 -1.28709 0 255 255
-1.05967 5.46172 -1.28484 0 255 255
-1.04251 5.46502 -1.28484 0 255 255
-1.02534 5.46827 -1.28484 0 255 255
-1.00815 5.47146 -1.28484 0 255 255
-0.990957 5.4746 -1.28484 0 255 255
-0.975457 5.48728 -1.28709 0 255 255
-0.95989 5.49992 -1.28934 0 255 255
-0.945215 5.51235 -1.29159 0 255 255
-0.924658 5.49607 -1.28709 0 255 255
-0.908974 5.50856 -1.28934 0 255 255
-0.891663 5.51139 -1.28934 0 255 255
-0.872819 5.50454 -1.28709 0 255 255
-0.858514 5.52651 -1.29159 0 255 255
-0.840181 5.52933 -1.29159 0 255 255
-0.821374 5.52231 -1.28934 0 255 255
-0.806388 5.53436 -1.29159 0 255 255
-0.787624 5.52722 -1.28934 0 255 255
-0.771601 5.53932 -1.29159 0 255 255
-0.754194 5.54171 -1.29159 0 255 255
-0.736781 5.54405 -1.29159 0 255 255
-0.718106 5.53668 -1.28934 0 255 255
-0.701932 5.54857 -1.29159 0 255 255
-0.684498 5.55075 -1.29159 0 255 255
-0.667055 5.55288 -1.29159 0 255 255
-0.649608 5.55494 -1.29159 0 255 255
-0.633122 5.55685 -1.29159 0 255 255
-0.615662 5.55881 -1.29159 0 255 255
-0.597155 5.55103 -1.28934 0 255 255
-0.580723 5.56257 -1.29159 0 255 255
-0.563246 5.56436 -1.29159 0 255 255
-0.54481 5.55641 -1.28934 0 255 255
-0.528272 5.56779 -1.29159 0 255 255
-0.509889 5.55972 -1.28934 0 255 255
-0.493278 5.571 -1.29159 0 255 255
-0.475772 5.57253 -1.29159 0 255 255
-0.459063 5.5837 -1.29384 0 255 255
-0.44152 5.58512 -1.29384 0 255 255
-0.423973 5.58648 -1.29384 0 255 255
-0.406419 5.58778 -1.29384 0 255 255
-0.388184 5.57931 -1.29159 0 255 255
-0.37195 5.59995 -1.29609 0 255 255
-0.353738 5.59136 -1.29384 0 255 255
-0.335587 5.58272 -1.29159 0 255 255
-0.318599 5.59348 -1.29384 0 255 255
-0.30155 5.60418 -1.29609 0 255 255
-0.283451 5.59537 -1.29384 0 255 255
-0.265869 5.59623 -1.29384 0 255 255
-0.248831 5.58726 -1.29159 0 255 255
-0.231678 5.59775 -1.29384 0 255 255
-0.214465 5.60819 -1.29609 0 255 255
-0.196846 5.60883 -1.29609 0 255 255
-0.178912 5.59969 -1.29384 0 255 255
-0.16104 5.59048 -1.29159 0 255 255
-0.143724 5.6007 -1.29384 0 255 255
-0.12591 5.59138 -1.29159 0 255 255
-0.108345 5.59175 -1.29159 0 255 255
-0.091092 5.61155 -1.29609 0 255 255
-0.073208 5.59232 -1.29159 0 255 255
-0.055735 5.60226 -1.29384 0 255 255
-0.038135 5.60241 -1.29384 0 255 255
-0.020536 5.6025 -1.29384 0 255 255
-0.002933 5.60254 -1.29384 0 255 255
0.014669 5.60252 -1.29384 0 255 255
0.032325 5.61219 -1.29609 0 255 255
0.049868 5.60232 -1.29384 0 255 255
0.066489 5.60215 -1.29384 0 255 255
0.08409 5.60191 -1.29384 0 255 255
0.10169 5.60162 -1.29384 0 255 255
0.119079 5.59153 -1.29159 0 255 255
0.13712 5.61061 -1.29609 0 255 255
0.154745 5.61015 -1.29609 0 255 255
0.17237 5.60964 -1.29609 0 255 255
0.189664 5.59933 -1.29384 0 255 255
0.207614 5.60844 -1.29609 0 255 255
0.225231 5.60776 -1.29609 0 255 255
0.242846 5.60703 -1.29609 0 255 255
0.260461 5.60624 -1.29609 0 255 255
0.278557 5.61512 -1.29834 0 255 255
0.295679 5.60449 -1.29609 0 255 255
0.313286 5.60354 -1.29609 0 255 255
0.330887 5.60252 -1.29609 0 255 255
0.348488 5.60146 -1.29609 0 255 255
0.366086 5.60033 -1.29609 0 255 255
0.38434 5.60888 -1.29834 0 255 255
0.400567 5.5882 -1.29384 0 255 255
0.418847 5.59663 -1.29609 0 255 255
0.436429 5.59529 -1.29609 0 255 255
0.453028 5.59397 -1.29609 0 255 255
0.470598 5.59252 -1.29609 0 255 255
0.488167 5.59101 -1.29609 0 255 255
0.505728 5.58945 -1.29609 0 255 255
0.523287 5.58784 -1.29609 0 255 255
0.540838 5.58616 -1.29609 0 255 255
0.559353 5.59413 -1.29834 0 255 255
0.574927 5.57297 -1.29384 0 255 255
0.593464 5.58082 -1.29609 0 255 255
0.610993 5.57893 -1.29609 0 255 255
0.628515 5.57698 -1.29609 0 255 255
0.64491 5.5653 -1.29384 0 255 255
0.664696 5.5826 -1.29834 0 255 255
0.679868 5.56114 -1.29384 0 255 255
0.698547 5.56864 -1.29609 0 255 255
0.716037 5.56642 -1.29609 0 255 255
0.73352 5.56414 -1.29609 0 255 255
0.752302 5.57147 -1.29834 0 255 255
0.768469 5.55942 -1.29609 0 255 255
0.78593 5.55698 -1.29609 0 255 255
0.803806 5.56427 -1.29834 0 255 255
0.819858 5.55208 -1.29609 0 255 255
0.839722 5.55896 -1.29834 0 255 255
0.855698 5.54667 -1.29609 0 255 255
0.873664 5.55373 -1.29834 0 255 255
0.888018 5.53172 -1.29384 0 255 255
0.906965 5.53852 -1.29609 0 255 255
0.922758 5.52603 -1.29384 0 255 255
0.940115 5.5231 -1.29384 0 255 255
0.959126 5.52972 -1.29609 0 255 255
0.974797 5.51709 -1.29384 0 255 255
0.992123 5.514 -1.29384 0 255 255
1.00944 5.51085 -1.29384 0 255 255
1.02854 5.51723 -1.29609 0 255 255
1.04405 5.5044 -1.29384 0 255 255
1.06133 5.50109 -1.29384 0 255 255
1.07765 5.49792 -1.29384 0 255 255
1.09492 5.49451 -1.29384 0 255 255
1.11218 5.49104 -1.29384 0 255 255
1.12942 5.48752 -1.29384 0 255 255
1.14665 5.48395 -1.29384 0 255 255
1.16185 5.47079 -1.29159 0 255 255
1.17903 5.46711 -1.29159 0 255 255
1.1962 5.46338 -1.29159 0 255 255
1.21547 5.4691 -1.29384 0 255 255
1.22836 5.44625 -1.28934 0 255 255
1.24547 5.44236 -1.28934 0 255 255
1.26256 5.43842 -1.28934 0 255 255
1.27964 5.43443 -1.28934 0 255 255
1.29897 5.43986 -1.29159 0 255 255
1.31376 5.42628 -1.28934 0 255 255
1.33312 5.43159 -1.29159 0 255 255
1.34688 5.41816 -1.28934 0 255 255
1.3639 5.4139 -1.28934 0 255 255
1.37849 5.40015 -1.28709 0 255 255
1.40032 5.41465 -1.29159 0 255 255
1.41486 5.4008 -1.28934 0 255 255
1.43182 5.39633 -1.28934 0 255 255
1.44624 5.3824 -1.28709 0 255 255
1.46314 5.37783 -1.28709 0 255 255
1.48003 5.3732 -1.28709 0 255 255
1.49428 5.35914 -1.28484 0 255 255
1.50753 5.34531 -1.28259 0 255 255
1.52967 5.35928 -1.28709 0 255 255
1.54649 5.35445 -1.28709 0 255 255
1.56058 5.34021 -1.28484 0 255 255
1.57458 5.32594 -1.28259 0 255 255
1.59689 5.33964 -1.28709 0 255 255
1.60801 5.31594 -1.28259 0 255 255
1.62186 5.30155 -1.28034 0 255 255
1.64138 5.30574 -1.28259 0 255 255
1.65805 5.30055 -1.28259 0 255 255
1.67469 5.29532 -1.28259 0 255 255
1.68835 5.28075 -1.28034 0 255 255
1.70793 5.28469 -1.28259 0 255 255
1.7215 5.27004 -1.28034 0 255 255
1.73804 5.2646 -1.28034 0 255 255
1.75766 5.26836 -1.28259 0 255 255
1.77109 5.25358 -1.28034 0 255 255
1.79073 5.25721 -1.28259 0 255 255
1.80406 5.24235 -1.28034 0 255 255
1.81412 5.21825 -1.27584 0 255 255
1.84019 5.2401 -1.28259 0 255 255
0.781713 2.18324 -0.535537 0 255 255
0.833016 2.17462 -0.537787 0 255 255
2.01215 5.15559 -1.27809 0 255 255
2.01852 5.1217 -1.27134 0 255 255
2.0382 5.12438 -1.27359 0 255 255
2.0534 5.11831 -1.27359 0 255 255
2.06581 5.10281 -1.27134 0 255 255
2.08183 5.09629 -1.27134 0 255 255
2.10155 5.09873 -1.27359 0 255 255
2.11381 5.08311 -1.27134 0 255 255
2.12977 5.07644 -1.27134 0 255 255
2.1495 5.0787 -1.27359 0 255 255
2.16162 5.06296 -1.27134 0 255 255
2.17367 5.04719 -1.26909 0 255 255
2.18951 5.04034 -1.26909 0 255 255
2.20924 5.04236 -1.27134 0 255 255
2.22114 5.02648 -1.26909 0 255 255
2.24088 5.02838 -1.27134 0 255 255
2.25667 5.02132 -1.27134 0 255 255
2.27243 5.0142 -1.27134 0 255 255
2.28413 4.99818 -1.26909 0 255 255
2.29574 4.98213 -1.26684 0 255 255
2.31138 4.97489 -1.26684 0 255 255
2.3394 4.99407 -1.27359 0 255 255
2.33843 4.95146 -1.26459 0 255 255
2.3573 4.9533 -1.26684 0 255 255
2.36863 4.93708 -1.26459 0 255 255
2.38499 4.9292 -1.26459 0 255 255
2.3962 4.91293 -1.26234 0 255 255
2.41506 4.91454 -1.26459 0 255 255
2.43049 4.90693 -1.26459 0 255 255
2.44154 4.89055 -1.26234 0 255 255
2.45689 4.88286 -1.26234 0 255 255
2.46781 4.86643 -1.26009 0 255 255
2.48308 4.85865 -1.26009 0 255 255
2.49834 4.85082 -1.26009 0 255 255
2.51357 4.84295 -1.26009 0 255 255
2.52425 4.8264 -1.25784 0 255 255
2.5394 4.81844 -1.25784 0 255 255
2.55909 4.81905 -1.26009 0 255 255
2.56963 4.80239 -1.25784 0 255 255
2.5847 4.79429 -1.25784 0 255 255
2.5951 4.77759 -1.25559 0 255 255
2.60542 4.76087 -1.25334 0 255 255
2.61566 4.74412 -1.25109 0 255 255
2.63445 4.74486 -1.25334 0 255 255
2.64935 4.73656 -1.25334 0 255 255
2.66421 4.72822 -1.25334 0 255 255
2.67507 4.71088 -1.25109 0 255 255
2.68985 4.70245 -1.25109 0 255 255
2.7103 4.70195 -1.25334 0 255 255
2.71445 4.67703 -1.24884 0 255 255
2.72913 4.66848 -1.24884 0 255 255
2.73803 4.65197 -1.24659 0 255 255
2.75263 4.64334 -1.24659 0 255 255
2.7722 4.64304 -1.24884 0 255 255
2.78678 4.63431 -1.24884 0 255 255
2.80132 4.62553 -1.24884 0 255 255
2.81076 4.60839 -1.24659 0 255 255
2.82523 4.59953 -1.24659 0 255 255
2.83966 4.59063 -1.24659 0 255 255
2.85407 4.58169 -1.24659 0 255 255
2.85809 4.5562 -1.24209 0 255 255
2.8828 4.56367 -1.24659 0 255 255
2.88667 4.53815 -1.24209 0 255 255
2.90012 4.52956 -1.24209 0 255 255
2.91512 4.51992 -1.24209 0 255 255
2.924 4.50257 -1.23984 0 255 255
2.94346 4.50151 -1.24209 0 255 255
2.94688 4.47597 -1.23759 0 255 255
2.96092 4.46669 -1.23759 0 255 255
2.97416 4.45788 -1.23759 0 255 255
2.98272 4.44043 -1.23534 0 255 255
3.00211 4.43911 -1.23759 0 255 255
3.00508 4.41355 -1.23309 0 255 255
3.02521 4.41159 -1.23534 0 255 255
3.03905 4.40207 -1.23534 0 255 255
3.04731 4.3845 -1.23309 0 255 255
3.06665 4.38289 -1.23534 0 255 255
3.07964 4.37377 -1.23534 0 255 255
3.08773 4.35612 -1.23309 0 255 255
3.09008 4.33054 -1.22859 0 255 255
3.11504 4.33664 -1.23309 0 255 255
3.12294 4.31893 -1.23084 0 255 255
3.14223 4.31698 -1.23309 0 255 255
3.14426 4.29137 -1.22859 0 255 255
3.16351 4.28931 -1.23084 0 255 255
3.16535 4.2637 -1.22634 0 255 255
3.17873 4.25374 -1.22634 0 255 255
3.19794 4.25152 -1.22859 0 255 255
3.21128 4.24145 -1.22859 0 255 255
3.21868 4.22359 -1.22634 0 255 255
3.226 4.20573 -1.22408 0 255 255
3.23324 4.18786 -1.22184 0 255 255
3.24639 4.17768 -1.22184 0 255 255
3.25949 4.16746 -1.22184 0 255 255
3.27257 4.1572 -1.22184 0 255 255
3.27884 4.13983 -1.21958 0 255 255
3.28575 4.12189 -1.21733 0 255 255
3.3116 4.12617 -1.22184 0 255 255
3.3123 4.10059 -1.21733 0 255 255
3.31902 4.0826 -1.21509 0 255 255
3.33801 4.0797 -1.21733 0 255 255
1.83994 2.22095 -0.666046 0 255 255
1.84691 2.21515 -0.666046 0 255 255
1.87265 2.23173 -0.672797 0 255 255
3.38211 4.00502 -1.21058 0 255 255
3.38837 3.98695 -1.20833 0 255 255
3.38821 3.96148 -1.20383 0 255 255
3.41335 3.96558 -1.20833 0 255 255
3.41941 3.94748 -1.20608 0 255 255
3.41899 3.92203 -1.20158 0 255 255
3.4313 3.91127 -1.20158 0 255 255
3.45002 3.90777 -1.20383 0 255 255
3.4558 3.88963 -1.20158 0 255 255
3.468 3.87875 -1.20158 0 255 255
3.47366 3.8606 -1.19933 0 255 255
3.48577 3.84966 -1.19933 0 255 255
3.49061 3.8321 -1.19708 0 255 255
3.50264 3.82112 -1.19708 0 255 255
3.50802 3.80293 -1.19483 0 255 255
3.51995 3.79189 -1.19483 0 255 255
3.52585 3.77308 -1.19258 0 255 255
3.54436 3.76908 -1.19483 0 255 255
3.55618 3.75793 -1.19483 0 255 255
3.56125 3.73968 -1.19258 0 255 255
3.57298 3.72848 -1.19258 0 255 255
3.57115 3.70321 -1.18808 0 255 255
3.58955 3.69896 -1.19033 0 255 255
3.60116 3.68766 -1.19033 0 255 255
3.61272 3.67634 -1.19033 0 255 255
3.61055 3.65111 -1.18583 0 255 255
3.61513 3.63284 -1.18358 0 255 255
3.64032 3.63524 -1.18808 0 255 255
3.6448 3.61692 -1.18583 0 255 255
3.64227 3.59177 -1.18133 0 255 255
3.63204 3.56048 -1.17458 0 255 255
3.64321 3.54906 -1.17458 0 255 255
3.62634 3.51048 -1.16558 0 255 255
3.65139 3.51258 -1.17008 0 255 255
3.65536 3.49436 -1.16783 0 255 255
3.65926 3.47615 -1.16558 0 255 255
3.67016 3.46464 -1.16558 0 255 255
3.66682 3.43976 -1.16108 0 255 255
3.67761 3.42822 -1.16108 0 255 255
3.68121 3.41003 -1.15883 0 255 255
3.70684 3.411 -1.16333 0 255 255
3.69596 3.37961 -1.15658 0 255 255
3.71318 3.37519 -1.15883 0 255 255
3.71654 3.35697 -1.15658 0 255 255
3.73432 3.35179 -1.15883 0 255 255
3.73756 3.33355 -1.15658 0 255 255
3.73343 3.30887 -1.15208 0 255 255
3.73649 3.29069 -1.14983 0 255 255
3.76148 3.29176 -1.15433 0 255 255
3.7718 3.27993 -1.15433 0 255 255
3.77471 3.2617 -1.15208 0 255 255
3.77016 3.23713 -1.14758 0 255 255
3.78772 3.23159 -1.14983 0 255 255
3.78299 3.20707 -1.14533 0 255 255
3.78559 3.18889 -1.14308 0 255 255
3.80306 3.18324 -1.14533 0 255 255
3.80556 3.16505 -1.14308 0 255 255
3.85331 3.04425 -1.13408 0 255 255
3.84752 3.0201 -1.12958 0 255 255
3.84931 3.00201 -1.12733 0 255 255
3.85102 2.98393 -1.12508 0 255 255
3.86038 2.97182 -1.12508 0 255 255
3.86969 2.95967 -1.12508 0 255 255
3.84794 2.92392 -1.11608 0 255 255
3.86488 2.91769 -1.11833 0 255 255
3.86573 2.90036 -1.11608 0 255 255
3.88264 2.89403 -1.11833 0 255 255
3.88388 2.87602 -1.11608 0 255 255
3.88554 2.85735 -1.11383 0 255 255
3.8945 2.84513 -1.11383 0 255 255
3.90342 2.83288 -1.11383 0 255 255
3.91181 2.82128 -1.11383 0 255 255
3.91273 2.80331 -1.11158 0 255 255
3.91358 2.78535 -1.10933 0 255 255
3.91484 2.76673 -1.10708 0 255 255
3.90756 2.74322 -1.10258 0 255 255
3.92415 2.73651 -1.10483 0 255 255
3.92425 2.7193 -1.10258 0 255 255
3.92474 2.70144 -1.10033 0 255 255
3.92517 2.68359 -1.09808 0 255 255
3.93358 2.67125 -1.09808 0 255 255
3.93434 2.65275 -1.09583 0 255 255
3.94265 2.64037 -1.09583 0 255 255
3.93424 2.61787 -1.09133 0 255 255
3.94245 2.60549 -1.09133 0 255 255
3.93432 2.5824 -1.08683 0 255 255
3.93425 2.56471 -1.08458 0 255 255
3.95047 2.55763 -1.08683 0 255 255
3.9339 2.5294 -1.08008 0 255 255
3.86792 2.46983 -1.05982 0 255 255
3.98026 2.4372 -1.07782 0 255 255
4.01287 2.43987 -1.08458 0 255 255
4.00384 2.41718 -1.08008 0 255 255
4.01141 2.40458 -1.08008 0 255 255
4.01895 2.39197 -1.08008 0 255 255
4.02644 2.37933 -1.08008 0 255 255
4.03389 2.36667 -1.08008 0 255 255
4.04973 2.35889 -1.08232 0 255 255
4.05712 2.34616 -1.08232 0 255 255
4.05602 2.32855 -1.08008 0 255 255
4.03792 2.30132 -1.07333 0 255 255
4.03665 2.28383 -1.07107 0 255 255
4.03531 2.26636 -1.06882 0 255 255
4.04241 2.25367 -1.06882 0 255 255
4.04094 2.23624 -1.06657 0 255 255
4.03087 2.21416 -1.06207 0 255 255
4.02925 2.19682 -1.05982 0 255 255
4.05327 2.19342 -1.06432 0 255 255
4.05156 2.17607 -1.06207 0 255 255
4.04118 2.15416 -1.05757 0 255 255
4.05654 2.14601 -1.05982 0 255 255
4.06326 2.13326 -1.05982 0 255 255
4.08722 2.12949 -1.06432 0 255 255
4.09389 2.11664 -1.06432 0 255 255
4.11786 2.11266 -1.06882 0 255 255
4.12448 2.09971 -1.06882 0 255 255
4.12236 2.08235 -1.06657 0 255 255
4.12888 2.06939 -1.06657 0 255 255
4.15281 2.06508 -1.07107 0 255 255
4.15928 2.05203 -1.07107 0 255 255
4.17445 2.04324 -1.07333 0 255 255
4.20715 2.04288 -1.08008 0 255 255
4.22232 2.03388 -1.08232 0 255 255
4.22869 2.02061 -1.08232 0 255 255
4.23502 2.00731 -1.08232 0 255 255
4.25012 1.99814 -1.08458 0 255 255
4.25638 1.98478 -1.08458 0 255 255
4.25375 1.96731 -1.08232 0 255 255
4.26876 1.958 -1.08458 0 255 255
4.27489 1.94458 -1.08458 0 255 255
4.28986 1.93515 -1.08683 0 255 255
4.28703 1.91768 -1.08458 0 255 255
4.30194 1.90815 -1.08683 0 255 255
4.29899 1.89071 -1.08458 0 255 255
4.31384 1.88109 -1.08683 0 255 255
4.31973 1.86752 -1.08683 0 255 255
4.32558 1.85394 -1.08683 0 255 255
4.33138 1.84035 -1.08683 0 255 255
4.33714 1.82673 -1.08683 0 255 255
4.34285 1.8131 -1.08683 0 255 255
4.34853 1.79944 -1.08683 0 255 255
4.35416 1.78577 -1.08683 0 255 255
4.35975 1.77208 -1.08683 0 255 255
4.37433 1.76202 -1.08908 0 255 255
4.3708 1.74466 -1.08683 0 255 255
4.38532 1.7345 -1.08908 0 255 255
4.38167 1.71716 -1.08683 0 255 255
4.39613 1.70691 -1.08908 0 255 255
4.40177 1.69232 -1.08908 0 255 255
4.40706 1.67849 -1.08908 0 255 255
4.41202 1.6654 -1.08908 0 255 255
4.40811 1.64812 -1.08683 0 255 255
4.43154 1.64104 -1.09133 0 255 255
4.44582 1.63046 -1.09358 0 255 255
4.44176 1.61316 -1.09133 0 255 255
4.44681 1.5992 -1.09133 0 255 255
4.45181 1.58522 -1.09133 0 255 255
4.45704 1.57045 -1.09133 0 255 255
4.46195 1.55644 -1.09133 0 255 255
4.46682 1.54241 -1.09133 0 255 255
4.47138 1.52915 -1.09133 0 255 255
4.47616 1.5151 -1.09133 0 255 255
4.4809 1.50103 -1.09133 0 255 255
4.48559 1.48694 -1.09133 0 255 255
4.4995 1.47588 -1.09358 0 255 255
4.50411 1.46174 -1.09358 0 255 255
4.4994 1.4446 -1.09133 0 255 255
4.51346 1.43262 -1.09358 0 255 255
4.51793 1.41843 -1.09358 0 255 255
4.52237 1.40423 -1.09358 0 255 255
4.5172 1.38795 -1.09133 0 255 255
4.52154 1.37375 -1.09133 0 255 255
4.52607 1.35875 -1.09133 0 255 255
4.53966 1.34729 -1.09358 0 255 255
4.53452 1.33028 -1.09133 0 255 255
4.55739 1.32146 -1.09583 0 255 255
4.55215 1.30445 -1.09358 0 255 255
4.55623 1.29014 -1.09358 0 255 255
4.56026 1.27582 -1.09358 0 255 255
4.57364 1.26408 -1.09583 0 255 255
4.56819 1.24714 -1.09358 0 255 255
4.58149 1.23532 -1.09583 0 255 255
4.57593 1.21842 -1.09358 0 255 255
4.57974 1.20404 -1.09358 0 255 255
4.59293 1.19209 -1.09583 0 255 255
4.58721 1.17524 -1.09358 0 255 255
4.60033 1.16321 -1.09583 0 255 255
4.60396 1.14875 -1.09583 0 255 255
4.59808 1.13195 -1.09358 0 255 255
4.62055 1.1221 -1.09808 0 255 255
4.61458 1.10531 -1.09583 0 255 255
4.61803 1.09081 -1.09583 0 255 255
4.63093 1.0785 -1.09808 0 255 255
4.62479 1.06177 -1.09583 0 255 255
4.63761 1.04938 -1.09808 0 255 255
4.64088 1.03481 -1.09808 0 255 255
4.64411 1.02023 -1.09808 0 255 255
4.63777 1.00357 -1.09583 0 255 255
4.65996 0.993056 -1.10033 0 255 255
4.65352 0.976411 -1.09808 0 255 255
4.66611 0.963756 -1.10033 0 255 255
4.65001 0.945212 -1.09583 0 255 255
4.66252 0.932508 -1.09808 0 255 255
4.65586 0.915976 -1.09583 0 255 255
4.67785 0.905047 -1.10033 0 255 255
4.6711 0.888525 -1.09808 0 255 255
4.69302 0.877428 -1.10258 0 255 255
4.67674 0.858341 -1.09808 0 255 255
4.69859 0.847103 -1.10258 0 255 255
4.68204 0.828942 -1.09808 0 255 255
4.70382 0.817564 -1.10258 0 255 255
4.69676 0.801145 -1.10033 0 255 255
4.70886 0.787993 -1.10258 0 255 255
4.7017 0.771618 -1.10033 0 255 255
4.7041 0.756845 -1.10033 0 255 255
4.69683 0.740544 -1.09808 0 255 255
4.70876 0.727273 -1.10033 0 255 255
5.82857 0.881487 -1.36135 0 255 255
5.86986 0.86888 -1.37034 0 255 255
5.90149 0.854625 -1.3771 0 255 255
5.94274 0.841544 -1.3861 0 255 255
5.97431 0.826879 -1.39285 0 255 255
6.0155 0.813326 -1.40185 0 255 255
6.07598 0.802076 -1.41535 0 255 255
6.14612 0.791699 -1.4311 0 255 255
8.98117 1.12822 -2.0904 0 255 255
8.98467 1.1 -2.0904 0 255 255
8.98808 1.07176 -2.0904 0 255 255
8.99141 1.04352 -2.0904 0 255 255
8.97528 1.01309 -2.0859 0 255 255
8.97841 0.984881 -2.0859 0 255 255
9.00084 0.958736 -2.0904 0 255 255
8.99412 0.92945 -2.08815 0 255 255
9.00685 0.900591 -2.0904 0 255 255
9.01933 0.873231 -2.09265 0 255 255
9.00263 0.843072 -2.08815 0 255 255
9.01479 0.817234 -2.0904 0 255 255
9.01745 0.787337 -2.0904 0 255 255
9.0393 0.76064 -2.0949 0 255 255
4.83645 0.391682 -1.12058 0 255 255
4.84854 0.362008 -1.12283 0 255 255
5.53344 0.343286 -1.28034 0 255 255
5.50531 0.324184 -1.27359 0 255 255
5.46739 0.304719 -1.26459 0 255 255
5.40994 0.28447 -1.25109 0 255 255
5.24537 0.259295 -1.21283 0 255 255
5.36296 0.24822 -1.23984 0 255 255
4.89645 0.211216 -1.13183 0 255 255
5.43256 0.217246 -1.25559 0 255 255
5.46243 0.201253 -1.26234 0 255 255
5.44355 0.183436 -1.25784 0 255 255
5.44411 0.166332 -1.25784 0 255 255
5.4446 0.149229 -1.25784 0 255 255
4.94827 0.12007 -1.14308 0 255 255
5.39672 0.113987 -1.24659 0 255 255
5.39706 0.097031 -1.24659 0 255 255
5.29017 0.078486 -1.22184 0 255 255
