ply
format ascii 1.0
element vertex 1313
property float x
property float y
property float z
property uchar red
property uchar green
property uchar blue
end_header
5.49364 2.20954 1.58581 0 255 255
5.50055 2.19227 1.58581 0 255 255
5.49843 2.17143 1.58322 0 255 255
5.51422 2.15767 1.58581 0 255 255
5.50295 2.13335 1.58063 0 255 255
5.51865 2.11952 1.58322 0 255 255
5.51588 2.09969 1.58063 0 255 255
5.51341 2.07895 1.57805 0 255 255
5.51992 2.06162 1.57805 0 255 255
5.52637 2.04427 1.57805 0 255 255
5.52369 2.02357 1.57546 0 255 255
5.53002 2.00621 1.57546 0 255 255
5.52721 1.98556 1.57287 0 255 255
5.53342 1.96818 1.57287 0 255 255
5.52135 1.94438 1.5677 0 255 255
5.52743 1.92702 1.5677 0 255 255
5.53346 1.90964 1.5677 0 255 255
5.53029 1.88913 1.56511 0 255 255
5.52672 1.86962 1.56252 0 255 255
5.53257 1.85225 1.56252 0 255 255
5.54753 1.83789 1.56511 0 255 255
5.5441 1.81745 1.56252 0 255 255
5.54978 1.80002 1.56252 0 255 255
5.54621 1.77963 1.55994 0 255 255
5.63463 1.78849 1.58322 0 255 255
5.70474 1.79104 1.60133 0 255 255
5.80259 1.80175 1.6272 0 255 255
5.90056 1.81187 1.65307 0 255 255
5.99865 1.82139 1.67894 0 255 255
6.10611 1.83308 1.70739 0 255 255
6.22264 1.84796 1.73844 0 255 255
6.3211 1.85561 1.76431 0 255 255
6.43822 1.86804 1.79535 0 255 255
6.53692 1.87443 1.82122 0 255 255
8.77326 2.48589 2.44209 0 255 255
8.78103 2.45832 2.44209 0 255 255
8.78871 2.43072 2.44209 0 255 255
8.78698 2.40055 2.4395 0 255 255
8.79448 2.37293 2.4395 0 255 255
8.79256 2.3428 2.43692 0 255 255
8.79988 2.31517 2.43692 0 255 255
8.8258 2.29237 2.44209 0 255 255
8.81385 2.26137 2.43692 0 255 255
8.80915 2.20127 2.43174 0 255 255
8.81602 2.17358 2.43174 0 255 255
8.81342 2.14359 2.42916 0 255 255
8.82011 2.11589 2.42916 0 255 255
8.81731 2.08595 2.42657 0 255 255
8.83024 2.03051 2.42657 0 255 255
8.83658 2.00275 2.42657 0 255 255
8.84283 1.97499 2.42657 0 255 255
8.83955 1.94512 2.42398 0 255 255
8.84529 1.91888 2.42398 0 255 255
8.85127 1.89109 2.42398 0 255 255
8.83826 1.85929 2.41881 0 255 255
8.85352 1.83348 2.42139 0 255 255
8.84031 1.8018 2.41622 0 255 255
8.86093 1.74808 2.41881 0 255 255
8.84741 1.71656 2.41363 0 255 255
8.85276 1.68875 2.41363 0 255 255
8.87701 1.6645 2.41881 0 255 255
8.8632 1.6331 2.41363 0 255 255
8.87779 1.60697 2.41622 0 255 255
8.87328 1.57738 2.41363 0 255 255
8.86868 1.54783 2.41105 0 255 255
8.8735 1.51996 2.41105 0 255 255
8.89728 1.49528 2.41622 0 255 255
8.88287 1.46418 2.41105 0 255 255
8.89697 1.43781 2.41363 0 255 255
8.90582 1.38188 2.41363 0 255 255
8.89078 1.35254 2.40846 0 255 255
8.89499 1.3246 2.40846 0 255 255
8.89911 1.29666 2.40846 0 255 255
8.89357 1.26733 2.40587 0 255 255
8.89751 1.23938 2.40587 0 255 255
8.90136 1.21142 2.40587 0 255 255
8.90512 1.18345 2.40587 0 255 255
8.9088 1.15547 2.40587 0 255 255
8.91238 1.12748 2.40587 0 255 255
8.91588 1.09947 2.40587 0 255 255
8.90951 1.07186 2.40329 0 255 255
8.92243 1.04499 2.40587 0 255 255
8.92567 1.01695 2.40587 0 255 255
8.92882 0.988905 2.40587 0 255 255
8.93188 0.960851 2.40587 0 255 255
8.93486 0.932783 2.40587 0 255 255
8.93775 0.904711 2.40587 0 255 255
8.94054 0.876629 2.40587 0 255 255
8.94325 0.848535 2.40587 0 255 255
8.94587 0.820436 2.40587 0 255 255
8.93879 0.791473 2.40329 0 255 255
8.95085 0.764211 2.40587 0 255 255
8.95321 0.736089 2.40587 0 255 255
8.95548 0.707955 2.40587 0 255 255
8.95766 0.679819 2.40587 0 255 255
8.96938 0.652377 2.40846 0 255 255
8.97128 0.625759 2.40846 0 255 255
8.96356 0.596931 2.40587 0 255 255
8.96539 0.568766 2.40587 0 255 255
8.96714 0.540599 2.40587 0 255 255
8.97843 0.512978 2.40846 0 255 255
8.97036 0.484246 2.40587 0 255 255
8.98148 0.456555 2.40846 0 255 255
8.98287 0.428334 2.40846 0 255 255
8.99382 0.400543 2.41105 0 255 255
8.98538 0.371888 2.40846 0 255 255
9.00581 0.344393 2.41363 0 255 255
8.98754 0.315423 2.40846 0 255 255
8.99814 0.287492 2.41105 0 255 255
8.999 0.259224 2.41105 0 255 255
9.00943 0.231201 2.41363 0 255 255
9.01011 0.202894 2.41363 0 255 255
9.02036 0.174776 2.41622 0 255 255
9.01121 0.146277 2.41363 0 255 255
9.0116 0.119541 2.41363 0 255 255
9.03125 0.091427 2.41881 0 255 255
9.02182 0.064559 2.41622 0 255 255
9.0413 0.036295 2.42139 0 255 255
9.02205 0.006297 2.41622 0 255 255
9.04135 -0.022092 2.42139 0 255 255
9.04124 -0.048918 2.42139 0 255 255
9.0507 -0.077405 2.42398 0 255 255
9.06007 -0.105951 2.42657 0 255 255
9.05001 -0.135849 2.42398 0 255 255
9.0592 -0.164455 2.42657 0 255 255
9.05864 -0.192915 2.42657 0 255 255
9.06765 -0.221608 2.42916 0 255 255
9.05725 -0.249828 2.42657 0 255 255
9.07573 -0.278874 2.43174 0 255 255
9.07481 -0.307385 2.43174 0 255 255
9.0738 -0.335893 2.43174 0 255 255
9.0727 -0.364397 2.43174 0 255 255
9.08116 -0.393316 2.43433 0 255 255
9.07988 -0.421843 2.43433 0 255 255
9.08816 -0.450845 2.43692 0 255 255
9.07705 -0.478885 2.43433 0 255 255
9.09488 -0.50689 2.4395 0 255 255
9.09324 -0.53546 2.4395 0 255 255
9.09151 -0.564025 2.4395 0 255 255
9.08969 -0.592584 2.4395 0 255 255
9.09743 -0.621795 2.44209 0 255 255
9.10506 -0.651062 2.44468 0 255 255
9.09334 -0.678944 2.44209 0 255 255
9.10079 -0.708257 2.44468 0 255 255
9.10815 -0.737625 2.44726 0 255 255
9.10579 -0.766235 2.44726 0 255 255
9.12258 -0.796518 2.45244 0 255 255
9.12003 -0.825174 2.45244 0 255 255
9.12702 -0.854722 2.45502 0 255 255
9.12428 -0.883391 2.45502 0 255 255
9.12146 -0.912051 2.45502 0 255 255
9.13777 -0.942685 2.4602 0 255 255
9.12516 -0.970366 2.45761 0 255 255
9.13167 -1.00008 2.4602 0 255 255
9.13808 -1.02984 2.46279 0 255 255
9.15399 -1.06077 2.46796 0 255 255
9.1508 -1.08793 2.46796 0 255 255
9.14734 -1.11667 2.46796 0 255 255
9.15337 -1.1466 2.47055 0 255 255
9.14972 -1.17535 2.47055 0 255 255
9.15556 -1.20535 2.47313 0 255 255
9.1613 -1.2354 2.47572 0 255 255
9.15738 -1.26418 2.47572 0 255 255
9.17249 -1.29564 2.48089 0 255 255
9.16838 -1.32445 2.48089 0 255 255
9.17372 -1.35466 2.48348 0 255 255
9.16942 -1.38347 2.48348 0 255 255
9.18413 -1.41521 2.48866 0 255 255
9.17963 -1.44406 2.48866 0 255 255
9.17505 -1.47289 2.48866 0 255 255
9.17991 -1.50327 2.49124 0 255 255
9.1942 -1.53528 2.49642 0 255 255
9.19885 -1.56578 2.499 0 255 255
9.19389 -1.59467 2.499 0 255 255
9.20786 -1.62691 2.50418 0 255 255
9.2027 -1.65583 2.50418 0 255 255
9.20696 -1.68647 2.50676 0 255 255
9.21111 -1.71716 2.50935 0 255 255
9.20567 -1.74609 2.50935 0 255 255
9.23808 -1.78232 2.5197 0 255 255
9.23243 -1.81133 2.5197 0 255 255
9.23617 -1.84222 2.52229 0 255 255
9.2398 -1.87314 2.52487 0 255 255
9.24333 -1.90411 2.52746 0 255 255
9.2471 -1.9335 2.53005 0 255 255
9.24098 -1.96255 2.53005 0 255 255
9.25365 -1.99564 2.53522 0 255 255
9.25677 -2.02677 2.53781 0 255 255
9.25979 -2.05793 2.54039 0 255 255
9.2627 -2.08914 2.54298 0 255 255
9.22748 -2.11337 2.53522 0 255 255
9.28665 -2.15766 2.55333 0 255 255
9.28021 -2.1852 2.55333 0 255 255
9.24511 -2.20761 2.54557 0 255 255
9.24752 -2.23892 2.54816 0 255 255
9.19354 -2.25645 2.53522 0 255 255
9.20515 -2.28998 2.54039 0 255 255
9.23538 -2.32834 2.55074 0 255 255
9.18122 -2.34538 2.53781 0 255 255
9.22992 -2.38874 2.55333 0 255 255
9.2504 -2.42507 2.56109 0 255 255
9.14937 -2.42933 2.53522 0 255 255
9.30027 -2.5007 2.5792 0 255 255
9.31101 -2.53498 2.58437 0 255 255
9.15401 -2.52315 2.54298 0 255 255
9.26699 -2.58565 2.57661 0 255 255
9.22164 -2.60425 2.56626 0 255 255
9.19483 -2.6279 2.56109 0 255 255
9.00095 -2.6031 2.50935 0 255 255
8.88147 -2.59881 2.47831 0 255 255
8.89179 -2.63218 2.48348 0 255 255
8.8002 -2.63516 2.4602 0 255 255
8.76414 -2.6544 2.45244 0 255 255
9.28221 -2.84317 2.5999 0 255 255
9.32855 -2.98609 2.62318 0 255 255
9.30993 -3.01241 2.62059 0 255 255
8.55675 -2.79843 2.41105 0 255 255
8.52958 -2.81924 2.40587 0 255 255
8.51152 -2.84296 2.40329 0 255 255
9.33541 -3.15078 2.6387 0 255 255
9.36916 -3.26085 2.65681 0 255 255
9.36798 -3.29347 2.65939 0 255 255
9.38029 -3.43084 2.67492 0 255 255
9.3274 -3.54501 2.67233 0 255 255
8.17086 -3.13486 2.34379 0 255 255
9.30494 -3.60355 2.67233 0 255 255
9.23824 -3.74563 2.66974 0 255 255
9.15712 -3.91529 2.66716 0 255 255
9.13234 -3.97275 2.66716 0 255 255
7.69206 -3.54934 2.26876 0 255 255
7.55425 -3.66 2.24807 0 255 255
8.94883 -4.37044 2.66716 0 255 255
8.92639 -4.39427 2.66457 0 255 255
8.9212 -4.42658 2.66716 0 255 255
8.89861 -4.45026 2.66457 0 255 255
8.79006 -4.64035 2.66198 0 255 255
8.77543 -4.66794 2.66198 0 255 255
9.56385 -5.3604 2.9362 0 255 255
9.46281 -5.38218 2.9155 0 255 255
9.42071 -5.39748 2.90774 0 255 255
9.35351 -5.39808 2.89222 0 255 255
9.11884 -5.41653 2.84048 0 255 255
9.0106 -5.3906 2.81203 0 255 255
6.98309 -4.20748 2.18339 0 255 255
6.79306 -4.4199 2.17046 0 255 255
7.75683 -5.08173 2.48348 0 255 255
7.64428 -5.07692 2.45761 0 255 255
6.5743 -4.63937 2.15494 0 255 255
6.55969 -4.66001 2.15494 0 255 255
6.53028 -4.70113 2.15494 0 255 255
6.49983 -4.71028 2.14976 0 255 255
6.52402 -4.75914 2.1627 0 255 255
6.47011 -4.75103 2.14976 0 255 255
6.45515 -4.77133 2.14976 0 255 255
6.44788 -4.79736 2.15235 0 255 255
6.4869 -4.85812 2.17046 0 255 255
6.42532 -4.84359 2.15494 0 255 255
6.57085 -5.05111 2.21961 0 255 255
6.36395 -4.92395 2.15494 0 255 255
6.46277 -5.03294 2.19374 0 255 255
6.33852 -5.03467 2.16787 0 255 255
6.26076 -5.06987 2.15752 0 255 255
6.16145 -5.08452 2.13942 0 255 255
6.09884 -5.09942 2.12907 0 255 255
6.03844 -5.08124 2.11355 0 255 255
6.07405 -5.14388 2.13165 0 255 255
5.97562 -5.12535 2.10837 0 255 255
5.82372 -5.12347 2.07733 0 255 255
7.26853 -6.43518 2.5999 0 255 255
5.97172 -5.3206 2.142 0 255 255
5.67448 -5.08785 2.04111 0 255 255
5.6513 -5.09918 2.03852 0 255 255
5.54071 -5.06291 2.01007 0 255 255
5.51056 -5.06722 2.00489 0 255 255
6.93486 -6.45782 2.53781 0 255 255
6.69386 -6.47322 2.49383 0 255 255
6.63235 -6.49488 2.48607 0 255 255
6.5434 -6.48881 2.46796 0 255 255
6.46842 -6.49557 2.45502 0 255 255
6.41394 -6.52231 2.44985 0 255 255
6.45237 -7.12347 2.57402 0 255 255
6.45581 -7.17242 2.58437 0 255 255
6.46545 -7.22867 2.59731 0 255 255
6.46837 -7.27782 2.60766 0 255 255
6.47986 -7.38366 2.63094 0 255 255
6.49027 -7.48993 2.65422 0 255 255
6.4996 -7.59662 2.6775 0 255 255
6.23129 -7.86757 2.68785 0 255 255
6.18768 -7.91417 2.69044 0 255 255
6.13783 -7.9529 2.69044 0 255 255
5.0372 -6.56935 2.21702 0 255 255
6.08189 -7.98362 2.68785 0 255 255
5.82669 -8.17173 2.68785 0 255 255
5.77523 -8.20818 2.68785 0 255 255
5.74941 -8.22628 2.68785 0 255 255
5.72354 -8.24431 2.68785 0 255 255
5.7031 -8.2702 2.69044 0 255 255
4.79277 -6.99705 2.27135 0 255 255
5.65646 -8.31386 2.69303 0 255 255
4.7259 -7.08887 2.2817 0 255 255
4.63183 -7.24259 2.30239 0 255 255
5.32734 -8.5057 2.68785 0 255 255
4.56086 -7.33303 2.31274 0 255 255
5.28395 -8.55544 2.69303 0 255 255
5.20308 -8.60486 2.69303 0 255 255
4.95298 -8.74011 2.69044 0 255 255
4.19352 -7.97732 2.41363 0 255 255
4.64202 -8.89827 2.68785 0 255 255
4.59628 -8.8785 2.6775 0 255 255
4.11037 -8.25856 2.47055 0 255 255
4.09296 -8.28875 2.47572 0 255 255
4.17739 -8.52711 2.54298 0 255 255
3.93612 -8.50295 2.50935 0 255 255
4.10133 -9.16006 2.68785 0 255 255
4.0255 -9.06695 2.65681 0 255 255
3.8491 -8.7436 2.5585 0 255 255
3.81775 -8.7468 2.55592 0 255 255
3.80943 -8.80307 2.56885 0 255 255
3.81984 -8.90377 2.59472 0 255 255
3.85454 -9.06751 2.6387 0 255 255
3.83353 -9.09738 2.64387 0 255 255
3.86078 -9.24308 2.68268 0 255 255
3.7763 -9.12129 2.64387 0 255 255
3.73295 -9.09736 2.63352 0 255 255
3.74438 -9.20747 2.66198 0 255 255
3.71544 -9.21919 2.66198 0 255 255
3.71512 -9.30258 2.68268 0 255 255
3.67521 -9.28726 2.67492 0 255 255
3.69186 -9.41567 2.70855 0 255 255
3.65876 -9.41822 2.70596 0 255 255
3.72977 -9.6911 2.78098 0 255 255
3.58411 -9.40554 2.69561 0 255 255
3.72851 -9.87765 2.82755 0 255 255
3.72114 -9.95265 2.84565 0 255 255
3.65296 -9.86465 2.8172 0 255 255
3.58869 -9.78539 2.79133 0 255 255
3.57442 -9.84201 2.80426 0 255 255
3.51733 -9.78048 2.78357 0 255 255
3.47363 -9.75508 2.77322 0 255 255
3.48793 -9.89348 2.80944 0 255 255
3.4441 -9.86791 2.79909 0 255 255
3.38928 -9.81536 2.78098 0 255 255
3.37718 -9.88081 2.7965 0 255 255
3.29969 -9.75411 2.7577 0 255 255
3.2077 -9.58123 2.70596 0 255 255
3.17454 -9.5821 2.70337 0 255 255
3.14442 -9.59202 2.70337 0 255 255
3.11725 -9.61104 2.70596 0 255 255
3.08409 -9.61159 2.70337 0 255 255
3.0568 -9.63044 2.70596 0 255 255
3.02654 -9.63999 2.70596 0 255 255
2.99623 -9.64945 2.70596 0 255 255
2.96874 -9.66805 2.70855 0 255 255
2.93555 -9.66809 2.70596 0 255 255
2.90794 -9.68651 2.70855 0 255 255
2.87749 -9.6956 2.70855 0 255 255
2.8443 -9.69533 2.70596 0 255 255
2.81482 -9.71398 2.70855 0 255 255
2.78429 -9.72278 2.70855 0 255 255
2.75373 -9.73148 2.70855 0 255 255
2.72314 -9.74008 2.70855 0 255 255
2.69253 -9.74859 2.70855 0 255 255
2.66189 -9.757 2.70855 0 255 255
2.63123 -9.76531 2.70855 0 255 255
2.60053 -9.77353 2.70855 0 255 255
2.56982 -9.78165 2.70855 0 255 255
2.5415 -9.79903 2.71113 0 255 255
2.50831 -9.7976 2.70855 0 255 255
2.47988 -9.8148 2.71113 0 255 255
2.44903 -9.82254 2.71113 0 255 255
2.41816 -9.83019 2.71113 0 255 255
2.38727 -9.83774 2.71113 0 255 255
2.3586 -9.85458 2.71372 0 255 255
2.32763 -9.86195 2.71372 0 255 255
2.29664 -9.86921 2.71372 0 255 255
2.26562 -9.87637 2.71372 0 255 255
2.23458 -9.88344 2.71372 0 255 255
2.2018 -9.8908 2.71372 0 255 255
2.17071 -9.89767 2.71372 0 255 255
2.13961 -9.90444 2.71372 0 255 255
2.10848 -9.91111 2.71372 0 255 255
2.07931 -9.92714 2.71631 0 255 255
2.04812 -9.93362 2.71631 0 255 255
2.0169 -9.94001 2.71631 0 255 255
1.98566 -9.9463 2.71631 0 255 255
1.9544 -9.95249 2.71631 0 255 255
1.92313 -9.95858 2.71631 0 255 255
1.89183 -9.96457 2.71631 0 255 255
1.86052 -9.97046 2.71631 0 255 255
1.83093 -9.98576 2.71889 0 255 255
1.79784 -9.98196 2.71631 0 255 255
1.76815 -9.99707 2.71889 0 255 255
1.73673 -10.0026 2.71889 0 255 255
1.70356 -10.0083 2.71889 0 255 255
1.67051 -10.0041 2.71631 0 255 255
1.64064 -10.0188 2.71889 0 255 255
1.60916 -10.0239 2.71889 0 255 255
1.57615 -10.0194 2.71631 0 255 255
1.54614 -10.0338 2.71889 0 255 255
1.51461 -10.0386 2.71889 0 255 255
1.48307 -10.0433 2.71889 0 255 255
1.44975 -10.0482 2.71889 0 255 255
1.41818 -10.0527 2.71889 0 255 255
1.38659 -10.0571 2.71889 0 255 255
1.35628 -10.071 2.72148 0 255 255
1.32589 -10.0848 2.72407 0 255 255
1.29297 -10.0793 2.72148 0 255 255
1.2613 -10.0833 2.72148 0 255 255
1.22962 -10.0872 2.72148 0 255 255
1.19792 -10.091 2.72148 0 255 255
1.16622 -10.0947 2.72148 0 255 255
1.1345 -10.0984 2.72148 0 255 255
1.10277 -10.1019 2.72148 0 255 255
1.07103 -10.1053 2.72148 0 255 255
1.03829 -10.099 2.71889 0 255 255
1.00751 -10.1118 2.72148 0 255 255
0.550043 -5.89572 1.58581 0 255 255
0.435273 -4.82954 1.29865 0 255 255
0.311518 -3.58953 0.964936 0 255 255
0.292191 -3.49424 0.939066 0 255 255
0.288959 -3.59142 0.964936 0 255 255
0.276186 -3.57305 0.959762 0 255 255
0.264959 -3.5739 0.959762 0 255 255
0.25373 -3.57471 0.959762 0 255 255
0.243152 -3.58513 0.962349 0 255 255
0.231888 -3.58588 0.962349 0 255 255
0.219996 -3.58663 0.962349 0 255 255
0.208727 -3.5873 0.962349 0 255 255
0.197456 -3.58794 0.962349 0 255 255
0.186183 -3.58854 0.962349 0 255 255
0.174909 -3.58911 0.962349 0 255 255
0.163192 -3.57999 0.959762 0 255 255
0.152354 -3.59014 0.962349 0 255 255
0.140696 -3.58094 0.959762 0 255 255
0.129794 -3.59102 0.962349 0 255 255
0.118512 -3.59141 0.962349 0 255 255
0.107228 -3.59177 0.962349 0 255 255
0.095944 -3.59209 0.962349 0 255 255
0.084659 -3.59237 0.962349 0 255 255
0.073373 -3.59262 0.962349 0 255 255
0.062086 -3.59283 0.962349 0 255 255
0.050799 -3.59301 0.962349 0 255 255
0.038883 -3.59316 0.962349 0 255 255
0.027669 -3.60292 0.964936 0 255 255
0.016306 -3.59333 0.962349 0 255 255
0.005017 -3.59336 0.962349 0 255 255
-0.006272 -3.59336 0.962349 0 255 255
-0.01756 -3.59332 0.962349 0 255 255
-0.028927 -3.60291 0.964936 0 255 255
-0.040245 -3.6028 0.964936 0 255 255
-0.051564 -3.60266 0.964936 0 255 255
-0.062882 -3.60248 0.964936 0 255 255
-0.074199 -3.60226 0.964936 0 255 255
-0.085515 -3.60201 0.964936 0 255 255
-0.09709 -3.61138 0.967523 0 255 255
-0.108145 -3.6014 0.964936 0 255 255
-0.119459 -3.60104 0.964936 0 255 255
-0.130771 -3.60065 0.964936 0 255 255
-0.143093 -3.60985 0.967523 0 255 255
-0.154434 -3.60938 0.967523 0 255 255
-0.165772 -3.60888 0.967523 0 255 255
-0.177108 -3.60834 0.967523 0 255 255
-0.188444 -3.60777 0.967523 0 255 255
-0.200311 -3.6168 0.97011 0 255 255
-0.212304 -3.61612 0.97011 0 255 255
-0.223663 -3.61543 0.97011 0 255 255
-0.23502 -3.61471 0.97011 0 255 255
-0.246375 -3.61396 0.97011 0 255 255
-0.257727 -3.61316 0.97011 0 255 255
-0.269795 -3.62197 0.972697 0 255 255
-0.280424 -3.61147 0.97011 0 255 255
-0.292546 -3.6202 0.972697 0 255 255
-0.303918 -3.61927 0.972697 0 255 255
-0.315287 -3.61829 0.972697 0 255 255
-0.327521 -3.62691 0.975284 0 255 255
-0.338015 -3.61624 0.972697 0 255 255
-0.350303 -3.62478 0.975284 0 255 255
-0.36169 -3.62366 0.975284 0 255 255
-0.374695 -3.63205 0.977871 0 255 255
-0.386103 -3.63085 0.977871 0 255 255
-0.397508 -3.62962 0.977871 0 255 255
-0.409991 -3.63795 0.980458 0 255 255
-0.421418 -3.63665 0.980458 0 255 255
-0.432841 -3.63531 0.980458 0 255 255
-0.444259 -3.63393 0.980458 0 255 255
-0.456875 -3.6421 0.983045 0 255 255
-0.468951 -3.64056 0.983045 0 255 255
-0.480385 -3.63907 0.983045 0 255 255
-0.491816 -3.63755 0.983045 0 255 255
-0.504565 -3.64555 0.985632 0 255 255
-0.516015 -3.64395 0.985632 0 255 255
-0.528845 -3.65187 0.988219 0 255 255
-0.540315 -3.65019 0.988219 0 255 255
-0.553224 -3.65803 0.990806 0 255 255
-0.564713 -3.65627 0.990806 0 255 255
-0.576197 -3.65448 0.990806 0 255 255
-0.587676 -3.65265 0.990806 0 255 255
-0.600712 -3.66032 0.993392 0 255 255
-0.612208 -3.65841 0.993392 0 255 255
-0.623698 -3.65647 0.993392 0 255 255
-0.636837 -3.66401 0.995979 0 255 255
-0.648344 -3.66199 0.995979 0 255 255
-0.660484 -3.65982 0.995979 0 255 255
-0.671978 -3.65773 0.995979 0 255 255
-0.685242 -3.66509 0.998566 0 255 255
-0.696752 -3.66292 0.998566 0 255 255
-0.708256 -3.66072 0.998566 0 255 255
-1.4909 -7.45447 2.03594 0 255 255
-1.51816 -7.46868 2.04111 0 255 255
-1.54162 -7.46387 2.04111 0 255 255
-1.56704 -7.46844 2.0437 0 255 255
-1.59251 -7.47293 2.04628 0 255 255
-1.61598 -7.46789 2.04628 0 255 255
-1.64151 -7.47221 2.04887 0 255 255
-1.66708 -7.47645 2.05146 0 255 255
-1.69055 -7.47117 2.05146 0 255 255
-1.71618 -7.47524 2.05405 0 255 255
-1.73966 -7.46981 2.05405 0 255 255
-1.76533 -7.47371 2.05663 0 255 255
-1.79105 -7.47752 2.05922 0 255 255
-1.81682 -7.48125 2.06181 0 255 255
-1.84392 -7.48456 2.06439 0 255 255
-1.86743 -7.47873 2.06439 0 255 255
-1.89566 -7.49155 2.06957 0 255 255
-1.92158 -7.49492 2.07215 0 255 255
-1.94512 -7.48884 2.07215 0 255 255
-2.64696 -10.061 2.78615 0 255 255
-2.67607 -10.0433 2.78357 0 255 255
-2.70761 -10.0348 2.78357 0 255 255
-2.73912 -10.0263 2.78357 0 255 255
-2.77318 -10.0269 2.78615 0 255 255
-2.80206 -10.0089 2.78357 0 255 255
-2.83613 -10.0093 2.78615 0 255 255
-2.86756 -10.0004 2.78615 0 255 255
-2.89896 -9.99131 2.78615 0 255 255
-2.93208 -9.98164 2.78615 0 255 255
-2.96342 -9.97238 2.78615 0 255 255
-2.99752 -9.97227 2.78874 0 255 255
-3.02883 -9.96281 2.78874 0 255 255
-3.06295 -9.96247 2.79133 0 255 255
-3.09424 -9.9528 2.79133 0 255 255
-3.12549 -9.94303 2.79133 0 255 255
-3.15964 -9.94237 2.79392 0 255 255
-3.19259 -9.93184 2.79392 0 255 255
-3.22079 -9.91257 2.79133 0 255 255
-3.25794 -9.92076 2.7965 0 255 255
-3.28605 -9.90131 2.79392 0 255 255
-3.32021 -9.90009 2.7965 0 255 255
-3.3544 -9.89876 2.79909 0 255 255
-3.38548 -9.88818 2.79909 0 255 255
-3.41337 -9.86836 2.7965 0 255 255
-3.44754 -9.86671 2.79909 0 255 255
-3.47852 -9.85583 2.79909 0 255 255
-3.50947 -9.84485 2.79909 0 255 255
-3.54038 -9.83378 2.79909 0 255 255
-3.57455 -9.83169 2.80168 0 255 255
-3.60542 -9.82041 2.80168 0 255 255
-3.64297 -9.82715 2.80685 0 255 255
-3.69414 -9.86993 2.82237 0 255 255
-3.73369 -9.8757 2.82755 0 255 255
-3.76469 -9.86392 2.82755 0 255 255
-3.78177 -9.81599 2.8172 0 255 255
-3.79509 -9.75905 2.80426 0 255 255
-3.82573 -9.74708 2.80426 0 255 255
-3.86344 -9.75297 2.80944 0 255 255
-3.89765 -9.74976 2.81203 0 255 255
-3.92465 -9.72851 2.80944 0 255 255
-3.96417 -9.73333 2.81461 0 255 255
-3.98739 -9.70296 2.80944 0 255 255
-4.02525 -9.70823 2.81461 0 255 255
-4.05573 -9.69554 2.81461 0 255 255
-4.08617 -9.68275 2.81461 0 255 255
-4.12035 -9.67875 2.8172 0 255 255
-4.15074 -9.66576 2.8172 0 255 255
-4.18108 -9.65267 2.8172 0 255 255
-4.21525 -9.64834 2.81979 0 255 255
-4.24165 -9.62621 2.8172 0 255 255
-4.27579 -9.62166 2.81979 0 255 255
-4.30995 -9.617 2.82237 0 255 255
-4.34014 -9.60341 2.82237 0 255 255
-4.37029 -9.58973 2.82237 0 255 255
-4.40443 -9.58473 2.82496 0 255 255
-4.43046 -9.56208 2.82237 0 255 255
-4.46456 -9.55686 2.82496 0 255 255
-4.49868 -9.55153 2.82755 0 255 255
-1.84032 -3.87396 1.14861 0 255 255
-4.59436 -9.51661 2.83013 0 255 255
-4.61578 -9.48475 2.82496 0 255 255
-4.65407 -9.48755 2.83013 0 255 255
-4.68385 -9.47288 2.83013 0 255 255
-4.71358 -9.45812 2.83013 0 255 255
-4.75195 -9.46053 2.83531 0 255 255
-0.131684 -0.156602 0.047278 0 255 255
-0.132176 -0.156187 0.047278 0 255 255
-0.138983 -0.163189 0.049529 0 255 255
-0.152176 -0.177547 0.054032 0 255 255
-0.152733 -0.177068 0.054032 0 255 255
-0.153289 -0.176587 0.054032 0 255 255
-0.153843 -0.176105 0.054032 0 255 255
-0.154395 -0.175621 0.054032 0 255 255
-0.167858 -0.18973 0.058534 0 255 255
-0.174933 -0.196478 0.060785 0 255 255
-0.175549 -0.195928 0.060785 0 255 255
-0.176164 -0.195375 0.060785 0 255 255
-0.176777 -0.194821 0.060785 0 255 255
-0.177388 -0.194264 0.060785 0 255 255
-0.177997 -0.193706 0.060785 0 255 255
-0.18522 -0.2003 0.063037 0 255 255
-0.185848 -0.199717 0.063037 0 255 255
-0.179815 -0.19202 0.060785 0 255 255
-0.200464 -0.212727 0.067539 0 255 255
-0.194427 -0.205026 0.065288 0 255 255
-0.201796 -0.211463 0.067539 0 255 255
-0.188962 -0.196773 0.063037 0 255 255
-0.19635 -0.203185 0.065288 0 255 255
-0.190195 -0.195582 0.063037 0 255 255
-0.204438 -0.208911 0.067539 0 255 255
-0.19142 -0.194383 0.063037 0 255 255
-0.198888 -0.200701 0.065288 0 255 255
-0.199518 -0.200076 0.065288 0 255 255
-0.207047 -0.206325 0.067539 0 255 255
-0.200771 -0.198818 0.065288 0 255 255
-0.208339 -0.20502 0.067539 0 255 255
-0.202016 -0.197553 0.065288 0 255 255
-0.202636 -0.196917 0.065288 0 255 255
-0.196245 -0.189511 0.063037 0 255 255
-0.203869 -0.19564 0.065288 0 255 255
-0.211534 -0.201722 0.067539 0 255 255
-0.219238 -0.207759 0.069791 0 255 255
-0.21989 -0.207069 0.069791 0 255 255
-0.22054 -0.206377 0.069791 0 255 255
-0.235457 -0.218953 0.074293 0 255 255
-0.221832 -0.204987 0.069791 0 255 255
-0.229651 -0.21088 0.072042 0 255 255
-0.23751 -0.216724 0.074293 0 255 255
-0.223754 -0.202888 0.069791 0 255 255
-0.238867 -0.215228 0.074293 0 255 255
-0.239542 -0.214476 0.074293 0 255 255
-0.240215 -0.213723 0.074293 0 255 255
-0.240885 -0.212967 0.074293 0 255 255
-0.256192 -0.22507 0.078796 0 255 255
-0.242218 -0.211449 0.074293 0 255 255
-0.250241 -0.217072 0.076545 0 255 255
-0.243542 -0.209923 0.074293 0 255 255
-0.2442 -0.209157 0.074293 0 255 255
-0.252276 -0.214704 0.076545 0 255 255
-0.252949 -0.21391 0.076545 0 255 255
-0.246161 -0.206846 0.074293 0 255 255
-0.254288 -0.212317 0.076545 0 255 255
-0.247455 -0.205296 0.074293 0 255 255
-0.255617 -0.210715 0.076545 0 255 255
-0.24874 -0.203737 0.074293 0 255 255
-0.256936 -0.209104 0.076545 0 255 255
-0.265168 -0.214423 0.078796 0 255 255
-0.258245 -0.207486 0.076545 0 255 255
-0.243666 -0.194516 0.072042 0 255 255
-0.267177 -0.211914 0.078796 0 255 255
-0.260189 -0.205043 0.076545 0 255 255
-0.260832 -0.204224 0.076545 0 255 255
-0.269163 -0.209387 0.078796 0 255 255
-0.26211 -0.202582 0.076545 0 255 255
-0.262745 -0.201757 0.076545 0 255 255
-0.263378 -0.200931 0.076545 0 255 255
-0.264008 -0.200102 0.076545 0 255 255
-0.264635 -0.199272 0.076545 0 255 255
-0.249623 -0.18681 0.072042 0 255 255
-0.258028 -0.191838 0.074293 0 255 255
-0.274304 -0.202604 0.078796 0 255 255
-0.259228 -0.190213 0.074293 0 255 255
-0.268344 -0.194249 0.076545 0 255 255
-0.261042 -0.187716 0.074293 0 255 255
-0.261631 -0.186895 0.074293 0 255 255
-0.270163 -0.191711 0.076545 0 255 255
-0.278727 -0.196475 0.078796 0 255 255
-0.263381 -0.184421 0.074293 0 255 255
-0.271957 -0.189156 0.076545 0 255 255
-0.27255 -0.188301 0.076545 0 255 255
-0.281174 -0.192957 0.078796 0 255 255
-0.273728 -0.186585 0.076545 0 255 255
-0.266245 -0.180261 0.074293 0 255 255
-0.274863 -0.184909 0.076545 0 255 255
-0.275442 -0.184045 0.076545 0 255 255
-0.259783 -0.172403 0.072042 0 255 255
-0.284728 -0.187672 0.078796 0 255 255
-0.277196 -0.181392 0.076545 0 255 255
-0.277765 -0.18052 0.076545 0 255 255
-0.286517 -0.184931 0.078796 0 255 255
-0.278894 -0.178772 0.076545 0 255 255
-0.287673 -0.183127 0.078796 0 255 255
-0.296483 -0.187428 0.081047 0 255 255
-0.297037 -0.186548 0.081047 0 255 255
-0.297622 -0.185614 0.081047 0 255 255
-0.28992 -0.179548 0.078796 0 255 255
-0.282183 -0.173532 0.076545 0 255 255
-0.291043 -0.177723 0.078796 0 255 255
-0.299931 -0.181859 0.081047 0 255 255
-0.300501 -0.180916 0.081047 0 255 255
-0.317794 -0.18997 0.08555 0 255 255
-0.293253 -0.174052 0.078796 0 255 255
-0.302192 -0.178076 0.081047 0 255 255
-0.30275 -0.177126 0.081047 0 255 255
-0.311731 -0.181068 0.083299 0 255 255
-0.312298 -0.180087 0.083299 0 255 255
-0.304406 -0.174265 0.081047 0 255 255
-0.304952 -0.173307 0.081047 0 255 255
-0.297009 -0.167561 0.078796 0 255 255
-0.306035 -0.171388 0.081047 0 255 255
-0.315088 -0.17516 0.083299 0 255 255
-0.315637 -0.174169 0.083299 0 255 255
-0.299091 -0.163816 0.078796 0 255 255
-0.308165 -0.167529 0.081047 0 255 255
-0.282965 -0.15268 0.074293 0 255 255
-0.3178 -0.170189 0.083299 0 255 255
-0.30973 -0.164617 0.081047 0 255 255
-0.310245 -0.163643 0.081047 0 255 255
-0.31939 -0.167186 0.083299 0 255 255
-0.311268 -0.161691 0.081047 0 255 255
-0.311774 -0.160712 0.081047 0 255 255
-0.303603 -0.155295 0.078796 0 255 255
-0.312778 -0.15875 0.081047 0 255 255
-0.304573 -0.153384 0.078796 0 255 255
-0.313769 -0.156781 0.081047 0 255 255
-0.31426 -0.155795 0.081047 0 255 255
-0.306005 -0.150507 0.078796 0 255 255
-0.315233 -0.153817 0.081047 0 255 255
-0.306944 -0.148581 0.078796 0 255 255
-0.30741 -0.147616 0.078796 0 255 255
-0.299076 -0.14246 0.076545 0 255 255
-0.32595 -0.154006 0.083299 0 255 255
-0.326432 -0.152982 0.083299 0 255 255
-0.300405 -0.139635 0.076545 0 255 255
-0.318539 -0.146848 0.081047 0 255 255
-0.336721 -0.15395 0.08555 0 255 255
-0.328329 -0.148867 0.083299 0 255 255
-0.328769 -0.147893 0.083299 0 255 255
-0.329232 -0.146859 0.083299 0 255 255
-0.320781 -0.141883 0.081047 0 255 255
-0.321225 -0.140874 0.081047 0 255 255
-0.321666 -0.139865 0.081047 0 255 255
-0.322104 -0.138853 0.081047 0 255 255
-0.349417 -0.149327 0.087801 0 255 255
-0.331942 -0.140627 0.083299 0 255 255
-0.323399 -0.135811 0.081047 0 255 255
-0.332819 -0.138539 0.083299 0 255 255
-0.324245 -0.133777 0.081047 0 255 255
-0.333683 -0.136445 0.083299 0 255 255
-0.32508 -0.131737 0.081047 0 255 255
-0.334533 -0.134346 0.083299 0 255 255
-0.344007 -0.136897 0.08555 0 255 255
-0.326307 -0.128667 0.081047 0 255 255
-0.335785 -0.131187 0.083299 0 255 255
-0.327109 -0.126614 0.081047 0 255 255
-0.345676 -0.132624 0.08555 0 255 255
-0.355199 -0.134998 0.087801 0 255 255
-0.328266 -0.123583 0.081047 0 255 255
-0.328653 -0.122551 0.081047 0 255 255
-0.338176 -0.124894 0.083299 0 255 255
-0.338567 -0.123831 0.083299 0 255 255
-0.348137 -0.126024 0.08555 0 255 255
-0.339359 -0.121642 0.083299 0 255 255
-0.339719 -0.120634 0.083299 0 255 255
-0.330904 -0.116335 0.081047 0 255 255
-0.34047 -0.118497 0.083299 0 255 255
-0.34084 -0.117427 0.083299 0 255 255
-0.350429 -0.119501 0.08555 0 255 255
-0.341571 -0.115283 0.083299 0 255 255
-0.351173 -0.117297 0.08555 0 255 255
-0.342289 -0.113135 0.083299 0 255 255
-0.342643 -0.112059 0.083299 0 255 255
-0.342993 -0.110982 0.083299 0 255 255
-0.34334 -0.109904 0.083299 0 255 255
-0.325106 -0.102942 0.078796 0 255 255
-0.334726 -0.104833 0.081047 0 255 255
-0.325747 -0.100898 0.078796 0 255 255
-0.335378 -0.102727 0.081047 0 255 255
-0.345024 -0.104498 0.083299 0 255 255
-0.345351 -0.103413 0.083299 0 255 255
-0.336331 -0.099562 0.081047 0 255 255
-0.355345 -0.103977 0.08555 0 255 255
-0.34631 -0.100154 0.083299 0 255 255
-0.346623 -0.099065 0.083299 0 255 255
-0.346932 -0.097976 0.083299 0 255 255
-0.347222 -0.096946 0.083299 0 255 255
-0.356917 -0.098445 0.08555 0 255 255
-0.338423 -0.092201 0.081047 0 255 255
-0.357528 -0.096201 0.08555 0 255 255
-0.339012 -0.090014 0.081047 0 255 255
-0.339293 -0.088948 0.081047 0 255 255
-0.348987 -0.090384 0.083299 0 255 255
-0.33983 -0.086874 0.081047 0 255 255
-0.340101 -0.085806 0.081047 0 255 255
-0.349824 -0.087091 0.083299 0 255 255
-0.340633 -0.083668 0.081047 0 255 255
-0.350364 -0.084891 0.083299 0 255 255
-0.350629 -0.08379 0.083299 0 255 255
-0.35089 -0.082688 0.083299 0 255 255
-0.370129 -0.085996 0.087801 0 255 255
-0.341906 -0.078307 0.081047 0 255 255
-0.34215 -0.077232 0.081047 0 255 255
-0.351902 -0.078273 0.083299 0 255 255
-0.352146 -0.077167 0.083299 0 255 255
-0.352387 -0.07606 0.083299 0 255 255
-0.352624 -0.074952 0.083299 0 255 255
-0.352857 -0.073844 0.083299 0 255 255
-0.362631 -0.074701 0.08555 0 255 255
-0.372413 -0.075497 0.087801 0 255 255
-0.343971 -0.06867 0.081047 0 255 255
-0.353745 -0.069466 0.083299 0 255 255
-0.353962 -0.068355 0.083299 0 255 255
-0.354175 -0.067242 0.083299 0 255 255
-0.354384 -0.066129 0.083299 0 255 255
-0.35459 -0.065016 0.083299 0 255 255
-0.354793 -0.063901 0.083299 0 255 255
-0.354992 -0.062786 0.083299 0 255 255
-0.355187 -0.061671 0.083299 0 255 255
-0.345775 -0.058918 0.081047 0 255 255
-0.345958 -0.057831 0.081047 0 255 255
-0.346138 -0.056744 0.081047 0 255 255
-0.355934 -0.057203 0.083299 0 255 255
-0.346488 -0.054568 0.081047 0 255 255
-0.356287 -0.054965 0.083299 0 255 255
-0.346824 -0.05239 0.081047 0 255 255
-0.346986 -0.0513 0.081047 0 255 255
-0.347146 -0.05021 0.081047 0 255 255
-0.35694 -0.050546 0.083299 0 255 255
-0.347446 -0.048089 0.081047 0 255 255
-0.357251 -0.048302 0.083299 0 255 255
-0.357401 -0.04718 0.083299 0 255 255
-0.357547 -0.046057 0.083299 0 255 255
-0.367358 -0.046148 0.08555 0 255 255
-0.348159 -0.042625 0.081047 0 255 255
-0.357966 -0.042685 0.083299 0 255 255
-0.34842 -0.040437 0.081047 0 255 255
-0.348545 -0.039342 0.081047 0 255 255
-0.348667 -0.038247 0.081047 0 255 255
-0.368162 -0.039215 0.08555 0 255 255
-0.358592 -0.037057 0.083299 0 255 255
-0.349012 -0.034959 0.081047 0 255 255
-0.368515 -0.035744 0.08555 0 255 255
-0.349225 -0.032765 0.081047 0 255 255
-0.349326 -0.031668 0.081047 0 255 255
-0.35913 -0.03142 0.083299 0 255 255
-0.349518 -0.029473 0.081047 0 255 255
-0.349609 -0.028375 0.081047 0 255 255
-0.349691 -0.027337 0.081047 0 255 255
-0.349775 -0.026238 0.081047 0 255 255
-0.369293 -0.026536 0.08555 0 255 255
-0.359654 -0.024708 0.083299 0 255 255
-0.350007 -0.022941 0.081047 0 255 255
-0.350078 -0.021841 0.081047 0 255 255
-0.359871 -0.021317 0.083299 0 255 255
-0.330752 -0.01855 0.076545 0 255 255
-0.350268 -0.018541 0.081047 0 255 255
-0.340593 -0.016956 0.078796 0 255 255
-0.350377 -0.01634 0.081047 0 255 255
-0.350427 -0.015239 0.081047 0 255 255
-0.360206 -0.014593 0.083299 0 255 255
-0.350514 -0.013098 0.081047 0 255 255
-0.340815 -0.011663 0.078796 0 255 255
-0.350589 -0.010895 0.081047 0 255 255
-0.350621 -0.009794 0.081047 0 255 255
-0.34091 -0.008451 0.078796 0 255 255
-0.340935 -0.00738 0.078796 0 255 255
-0.350698 -0.006489 0.081047 0 255 255
-0.340975 -0.005237 0.078796 0 255 255
-0.331247 -0.004047 0.076545 0 255 255
-0.341001 -0.003095 0.078796 0 255 255
-0.341009 -0.002024 0.078796 0 255 255
-0.33127 -0.000925 0.076545 0 255 255
-0.341015 0.000119 0.078796 0 255 255
-0.321527 0.001066 0.074293 0 255 255
-0.350751 0.002265 0.081047 0 255 255
-0.331256 0.00318 0.076545 0 255 255
-0.302017 0.003848 0.069791 0 255 255
-0.321488 0.005106 0.074293 0 255 255
-0.331212 0.006302 0.076545 0 255 255
-0.340931 0.007558 0.078796 0 255 255
-0.331166 0.008383 0.076545 0 255 255
-0.321398 0.009146 0.074293 0 255 255
-0.340845 0.010771 0.078796 0 255 255
-0.331072 0.011503 0.076545 0 255 255
-0.301825 0.011437 0.069791 0 255 255
-0.330995 0.013526 0.076545 0 255 255
-0.321217 0.014137 0.074293 0 255 255
-0.301707 0.014228 0.069791 0 255 255
-0.330853 0.016645 0.076545 0 255 255
-0.311341 0.016644 0.072042 0 255 255
-0.321014 0.018172 0.074293 0 255 255
-0.340408 0.020343 0.078796 0 255 255
-0.31117 0.019577 0.072042 0 255 255
-0.340273 0.022482 0.078796 0 255 255
-0.340201 0.02355 0.078796 0 255 255
-0.320689 0.023212 0.074293 0 255 255
-0.320615 0.02422 0.074293 0 255 255
-0.339968 0.026696 0.078796 0 255 255
-0.330172 0.026971 0.076545 0 255 255
-0.339794 0.028832 0.078796 0 255 255
-0.339702 0.029899 0.078796 0 255 255
-0.339606 0.030966 0.078796 0 255 255
-0.329807 0.031118 0.076545 0 255 255
-0.32001 0.031208 0.074293 0 255 255
-0.339299 0.034166 0.078796 0 255 255
-0.33919 0.035231 0.078796 0 255 255
-0.319702 0.034223 0.074293 0 255 255
-0.319593 0.035227 0.074293 0 255 255
-0.338843 0.038427 0.078796 0 255 255
-0.32905 0.038305 0.076545 0 255 255
-0.348276 0.041653 0.081047 0 255 255
-0.319132 0.039184 0.074293 0 255 255
-0.348008 0.04384 0.081047 0 255 255
-0.338205 0.043685 0.078796 0 255 255
-0.338066 0.044747 0.078796 0 255 255
-0.337924 0.045809 0.078796 0 255 255
-0.347429 0.04821 0.081047 0 255 255
-0.347276 0.049301 0.081047 0 255 255
-0.34712 0.050392 0.081047 0 255 255
-0.346969 0.051421 0.081047 0 255 255
-0.346805 0.052511 0.081047 0 255 255
-0.356267 0.055089 0.083299 0 255 255
-0.356093 0.056208 0.083299 0 255 255
-0.365534 0.058876 0.08555 0 255 255
-0.355732 0.058445 0.083299 0 255 255
-0.355547 0.059562 0.083299 0 255 255
-0.355358 0.060679 0.083299 0 255 255
-0.355166 0.061795 0.083299 0 255 255
-0.364564 0.064611 0.08555 0 255 255
-0.36437 0.065692 0.08555 0 255 255
-0.364162 0.066836 0.08555 0 255 255
-0.36395 0.06798 0.08555 0 255 255
-0.354163 0.067304 0.083299 0 255 255
-0.363516 0.070265 0.08555 0 255 255
-0.353733 0.069528 0.083299 0 255 255
-0.372622 0.074457 0.087801 0 255 255
-0.362838 0.073688 0.08555 0 255 255
-0.362604 0.074828 0.08555 0 255 255
-0.371904 0.077966 0.087801 0 255 255
-0.362127 0.077105 0.08555 0 255 255
-0.361883 0.078242 0.08555 0 255 255
-0.352119 0.07729 0.083299 0 255 255
-0.361384 0.080514 0.08555 0 255 255
-0.361144 0.081586 0.08555 0 255 255
-0.370383 0.084897 0.087801 0 255 255
-0.360624 0.083853 0.08555 0 255 255
-0.360359 0.084986 0.08555 0 255 255
-0.36009 0.086118 0.08555 0 255 255
-0.350349 0.084953 0.083299 0 255 255
-0.35008 0.086053 0.083299 0 255 255
-0.349808 0.087152 0.083299 0 255 255
-0.349533 0.088251 0.083299 0 255 255
-0.339815 0.086933 0.081047 0 255 255
-0.358419 0.092827 0.08555 0 255 255
-0.348701 0.09148 0.083299 0 255 255
-0.357829 0.095077 0.08555 0 255 255
-0.338711 0.091138 0.081047 0 255 255
-0.347824 0.094762 0.083299 0 255 255
-0.356917 0.098445 0.08555 0 255 255
-0.347222 0.096946 0.083299 0 255 255
-0.356291 0.100686 0.08555 0 255 255
-0.337255 0.096388 0.081047 0 255 255
-0.35567 0.10286 0.08555 0 255 255
-0.336642 0.098505 0.081047 0 255 255
-0.336331 0.099562 0.081047 0 255 255
-0.345351 0.103413 0.083299 0 255 255
-0.335699 0.101673 0.081047 0 255 255
-0.344694 0.105581 0.083299 0 255 255
-0.353668 0.109546 0.08555 0 255 255
-0.325428 0.101921 0.078796 0 255 255
-0.343684 0.108825 0.083299 0 255 255
-0.334061 0.106934 0.081047 0 255 255
-0.352263 0.113982 0.08555 0 255 255
-0.333401 0.108972 0.081047 0 255 255
-0.333057 0.110019 0.081047 0 255 255
-0.33271 0.111065 0.081047 0 255 255
-0.341592 0.115224 0.083299 0 255 255
-0.35045 0.11944 0.08555 0 255 255
-0.331648 0.114196 0.081047 0 255 255
-0.331288 0.115237 0.081047 0 255 255
-0.349309 0.122737 0.08555 0 255 255
-0.33974 0.120575 0.083299 0 255 255
-0.339359 0.121642 0.083299 0 255 255
-0.348159 0.125963 0.08555 0 255 255
-0.347761 0.127056 0.08555 0 255 255
-0.338219 0.124776 0.083299 0 255 255
-0.337826 0.125838 0.083299 0 255 255
-0.328309 0.123469 0.081047 0 255 255
-0.346137 0.131416 0.08555 0 255 255
-0.327527 0.125529 0.081047 0 255 255
-0.345305 0.133588 0.08555 0 255 255
-0.344907 0.134612 0.08555 0 255 255
-0.344482 0.135695 0.08555 0 255 255
-0.335 0.133177 0.083299 0 255 255
-0.33458 0.134229 0.083299 0 255 255
-0.334157 0.135279 0.083299 0 255 255
-0.35177 0.143698 0.087801 0 255 255
-0.360325 0.148515 0.090053 0 255 255
-0.332867 0.138423 0.083299 0 255 255
-0.341415 0.143237 0.08555 0 255 255
-0.331991 0.140512 0.083299 0 255 255
-0.331572 0.141496 0.083299 0 255 255
-0.331126 0.142537 0.083299 0 255 255
-0.348551 0.151337 0.087801 0 255 255
-0.339149 0.148523 0.08555 0 255 255
-0.338681 0.149588 0.08555 0 255 255
-0.338209 0.150651 0.08555 0 255 255
-0.337734 0.151713 0.08555 0 255 255
-0.337256 0.152773 0.08555 0 255 255
-0.345637 0.15788 0.087801 0 255 255
-0.32744 0.150813 0.083299 0 255 255
-0.326991 0.151784 0.083299 0 255 255
-0.335337 0.156941 0.08555 0 255 255
-0.33487 0.157935 0.08555 0 255 255
-0.334372 0.158986 0.08555 0 255 255
-0.333843 0.160094 0.08555 0 255 255
-0.324566 0.156901 0.083299 0 255 255
-0.324099 0.157864 0.083299 0 255 255
-0.323602 0.158881 0.083299 0 255 255
-0.323101 0.159897 0.083299 0 255 255
-0.322597 0.160911 0.083299 0 255 255
-0.330795 0.1663 0.08555 0 255 255
-0.338962 0.171742 0.087801 0 255 255
-0.329744 0.168375 0.08555 0 255 255
-0.32055 0.164952 0.083299 0 255 255
-0.328679 0.170444 0.08555 0 255 255
-0.319507 0.166963 0.083299 0 255 255
-0.336254 0.176987 0.087801 0 255 255
-0.327089 0.173477 0.08555 0 255 255
-0.335135 0.179096 0.087801 0 255 255
-0.325992 0.175529 0.08555 0 255 255
-0.334003 0.181198 0.087801 0 255 255
-0.333432 0.182246 0.087801 0 255 255
-0.324323 0.178593 0.08555 0 255 255
-0.332281 0.184338 0.087801 0 255 255
-0.323226 0.180571 0.08555 0 255 255
-0.331149 0.186364 0.087801 0 255 255
-0.313641 0.177738 0.083299 0 255 255
-0.321542 0.183553 0.08555 0 255 255
-0.320932 0.184619 0.08555 0 255 255
-0.32878 0.190511 0.087801 0 255 255
-0.319765 0.186631 0.08555 0 255 255
-0.319178 0.187635 0.08555 0 255 255
-0.327004 0.193544 0.087801 0 255 255
-0.318025 0.189581 0.08555 0 255 255
-0.317428 0.190579 0.08555 0 255 255
-0.316828 0.191576 0.08555 0 255 255
-0.316225 0.19257 0.08555 0 255 255
-0.299007 0.183375 0.081047 0 255 255
-0.315008 0.194553 0.08555 0 255 255
-0.322669 0.200688 0.087801 0 255 255
-0.305556 0.191303 0.083299 0 255 255
-0.313195 0.197459 0.08555 0 255 255
-0.329025 0.208886 0.090053 0 255 255
-0.311948 0.199423 0.08555 0 255 255
-0.31132 0.200402 0.08555 0 255 255
-0.310689 0.201379 0.08555 0 255 255
-0.31009 0.2023 0.08555 0 255 255
-0.309453 0.203273 0.08555 0 255 255
-0.308813 0.204244 0.08555 0 255 255
-0.31628 0.210614 0.087801 0 255 255
-0.307524 0.20618 0.08555 0 255 255
-0.31495 0.212597 0.087801 0 255 255
-0.314281 0.213585 0.087801 0 255 255
-0.305567 0.209069 0.08555 0 255 255
-0.31297 0.215501 0.087801 0 255 255
-0.304284 0.210932 0.08555 0 255 255
-0.29563 0.206311 0.083299 0 255 255
-0.302953 0.21284 0.08555 0 255 255
-0.294328 0.208164 0.083299 0 255 255
-0.30161 0.214739 0.08555 0 255 255
-0.308891 0.221308 0.087801 0 255 255
-0.300292 0.216578 0.08555 0 255 255
-0.307495 0.223244 0.087801 0 255 255
-0.298925 0.21846 0.08555 0 255 255
-0.313934 0.230945 0.090053 0 255 255
-0.297547 0.220334 0.08555 0 255 255
-0.289041 0.215445 0.083299 0 255 255
-0.296157 0.222199 0.08555 0 255 255
-0.279907 0.211385 0.081047 0 255 255
-0.279241 0.212263 0.081047 0 255 255
-0.27861 0.213091 0.081047 0 255 255
-0.262498 0.202078 0.076545 0 255 255
-0.277266 0.214837 0.081047 0 255 255
-0.261224 0.203723 0.076545 0 255 255
-0.275911 0.216575 0.081047 0 255 255
-0.259938 0.205361 0.076545 0 255 255
-0.266955 0.212194 0.078796 0 255 255
-0.266287 0.213031 0.078796 0 255 255
-0.265617 0.213867 0.078796 0 255 255
-0.249804 0.202432 0.074293 0 255 255
-0.241616 0.197057 0.072042 0 255 255
-0.27112 0.222542 0.081047 0 255 255
-0.262946 0.217142 0.078796 0 255 255
-0.23229 0.193056 0.069791 0 255 255
-0.246629 0.206287 0.074293 0 255 255
-0.260888 0.21961 0.078796 0 255 255
-0.245328 0.207833 0.074293 0 255 255
-0.244674 0.208603 0.074293 0 255 255
-0.251412 0.215715 0.076545 0 255 255
-0.243359 0.210136 0.074293 0 255 255
-0.257445 0.223636 0.078796 0 255 255
-0.242071 0.211618 0.074293 0 255 255
-0.241404 0.212378 0.074293 0 255 255
-0.240736 0.213135 0.074293 0 255 255
-0.24734 0.220372 0.076545 0 255 255
-0.239392 0.214644 0.074293 0 255 255
-0.231483 0.208867 0.072042 0 255 255
-0.223612 0.203044 0.069791 0 255 255
-0.230166 0.210318 0.072042 0 255 255
-0.236676 0.217635 0.074293 0 255 255
-0.214572 0.198487 0.067539 0 255 255
-0.228211 0.212438 0.072042 0 255 255
-0.227542 0.213154 0.072042 0 255 255
-0.212692 0.200501 0.067539 0 255 255
-0.233267 0.221285 0.074293 0 255 255
-0.232571 0.222017 0.074293 0 255 255
-0.231911 0.222706 0.074293 0 255 255
-0.23121 0.223433 0.074293 0 255 255
-0.237492 0.230951 0.076545 0 255 255
-0.194983 0.190809 0.063037 0 255 255
-0.229094 0.225602 0.074293 0 255 255
-0.242226 0.240037 0.078796 0 255 255
-0.234612 0.233876 0.076545 0 255 255
-0.240755 0.241512 0.078796 0 255 255
-0.239995 0.242268 0.078796 0 255 255
-0.225562 0.229134 0.074293 0 255 255
-0.224841 0.229841 0.074293 0 255 255
-0.224118 0.230546 0.074293 0 255 255
-0.236932 0.245264 0.078796 0 255 255
-0.229413 0.238979 0.076545 0 255 255
-0.201796 0.211463 0.067539 0 255 255
-0.227948 0.240376 0.076545 0 255 255
-0.227234 0.241051 0.076545 0 255 255
-0.233137 0.248874 0.078796 0 255 255
-0.225673 0.242513 0.076545 0 255 255
-0.19845 0.214607 0.067539 0 255 255
-0.217594 0.236714 0.074293 0 255 255
-0.229991 0.251784 0.078796 0 255 255
-0.22265 0.245291 0.076545 0 255 255
-0.215353 0.238754 0.074293 0 255 255
-0.214602 0.23943 0.074293 0 255 255
-0.207368 0.232827 0.072042 0 255 255
-0.232465 0.262662 0.081047 0 255 255
-0.21877 0.248758 0.076545 0 255 255
-0.211576 0.242107 0.074293 0 255 255
-0.210814 0.242771 0.074293 0 255 255
-0.222826 0.258147 0.078796 0 255 255
-0.209328 0.244054 0.074293 0 255 255
-0.20224 0.237295 0.072042 0 255 255
-0.20779 0.245365 0.074293 0 255 255
-0.213336 0.253434 0.076545 0 255 255
-0.212538 0.254103 0.076545 0 255 255
-0.205512 0.247276 0.074293 0 255 255
-0.217142 0.262946 0.078796 0 255 255
-0.216315 0.263627 0.078796 0 255 255
-0.209329 0.256754 0.076545 0 255 255
-0.208521 0.25741 0.076545 0 255 255
-0.201602 0.250474 0.074293 0 255 255
-0.206945 0.258679 0.076545 0 255 255
-0.200068 0.251701 0.074293 0 255 255
-0.205315 0.259974 0.076545 0 255 255
-0.204497 0.260618 0.076545 0 255 255
-0.197687 0.253575 0.074293 0 255 255
-0.202856 0.261898 0.076545 0 255 255
-0.202078 0.262498 0.076545 0 255 255
-0.201252 0.263132 0.076545 0 255 255
-0.200425 0.263763 0.076545 0 255 255
-0.193725 0.256615 0.074293 0 255 255
-0.198764 0.265017 0.076545 0 255 255
-0.192108 0.257827 0.074293 0 255 255
-0.197094 0.266261 0.076545 0 255 255
-0.196257 0.266879 0.076545 0 255 255
-0.195464 0.26746 0.076545 0 255 255
-0.17745 0.244419 0.069791 0 255 255
-0.176682 0.244975 0.069791 0 255 255
-0.18726 0.26137 0.074293 0 255 255
-0.186484 0.261924 0.074293 0 255 255
-0.174408 0.246599 0.069791 0 255 255
-0.184835 0.263091 0.074293 0 255 255
-0.172855 0.24769 0.069791 0 255 255
-0.172076 0.248232 0.069791 0 255 255
-0.182347 0.264821 0.074293 0 255 255
-0.170557 0.249278 0.069791 0 255 255
-0.164296 0.241754 0.067539 0 255 255
-0.168987 0.250345 0.069791 0 255 255
-0.1682 0.250875 0.069791 0 255 255
-0.167411 0.251402 0.069791 0 255 255
-0.161245 0.2438 0.067539 0 255 255
-0.160521 0.244277 0.067539 0 255 255
-0.154428 0.236621 0.065288 0 255 255
-0.153684 0.237105 0.065288 0 255 255
-0.152938 0.237587 0.065288 0 255 255
-0.152191 0.238066 0.065288 0 255 255
-0.14622 0.230317 0.063037 0 255 255
-0.1403 0.222533 0.060785 0 255 255
-0.134429 0.214715 0.058534 0 255 255
-0.149187 0.239959 0.065288 0 255 255
-0.127959 0.207265 0.056283 0 255 255
-0.150201 2.0308 0.470524 0 255 255
-0.141068 1.99239 0.461519 0 255 255
-0.136782 2.02198 0.468273 0 255 255
-0.128547 1.99323 0.461519 0 255 255
-0.122285 1.99363 0.461519 0 255 255
3.11413 26.7105 6.21362 0 255 255
3.19804 26.7006 6.21362 0 255 255
3.29142 26.7678 6.23164 0 255 255
3.36086 26.6413 6.20462 0 255 255
3.46078 26.7563 6.23389 0 255 255
3.51795 26.5424 6.18661 0 255 255
3.57574 26.3774 6.15059 0 255 255
3.66395 26.4046 6.15959 0 255 255
3.75869 26.5094 6.18661 0 255 255
3.83915 26.4782 6.18211 0 255 255
3.49457 23.0523 5.38739 0 255 255
3.54955 22.9552 5.36713 0 255 255
3.63228 23.0113 5.38289 0 255 255
3.6999 22.9709 5.37614 0 255 255
3.77206 22.9592 5.37614 0 255 255
4.0486 24.1676 5.66205 0 255 255
4.10976 24.0683 5.64179 0 255 255
4.07664 23.0258 5.40315 0 255 255
4.15761 23.0608 5.41441 0 255 255
4.25993 23.2106 5.45268 0 255 255
4.33105 23.1875 5.45043 0 255 255
4.39476 23.1259 5.43917 0 255 255
4.45598 23.0745 5.43017 0 255 255
5.34535 24.3932 5.77011 0 255 255
5.42618 24.3953 5.77462 0 255 255
5.28586 22.7686 5.4009 0 255 255
5.35289 22.7329 5.3964 0 255 255
5.42202 22.7065 5.39415 0 255 255
5.49562 22.6989 5.3964 0 255 255
5.55831 22.6635 5.39189 0 255 255
5.61773 22.5987 5.38064 0 255 255
5.67679 22.5337 5.36938 0 255 255
5.69453 22.308 5.31985 0 255 255
5.75095 22.2533 5.31085 0 255 255
5.87019 22.4236 5.35587 0 255 255
5.92812 22.358 5.34462 0 255 255
5.99327 22.3204 5.34012 0 255 255
6.07103 22.3297 5.34687 0 255 255
6.12047 22.2354 5.32886 0 255 255
6.18904 22.2265 5.33111 0 255 255
6.28262 22.2914 5.35137 0 255 255
6.84703 24.0049 5.76786 0 255 255
6.93051 24.0113 5.77462 0 255 255
7.71617 25.5572 6.1686 0 255 255
7.44784 24.376 5.88943 0 255 255
7.42659 24.036 5.81289 0 255 255
0.764217 2.09625 0.515551 0 255 255
0.770433 2.09398 0.515551 0 255 255
0.800165 2.09323 0.517802 0 255 255
0.810244 2.0998 0.520053 0 255 255
0.820373 2.10632 0.522305 0 255 255
1.80394 2.16208 0.650629 0 255 255
1.81699 2.16387 0.652881 0 255 255
1.82378 2.15814 0.652881 0 255 255
1.83686 2.15983 0.655132 0 255 255
2.81398 2.28441 0.837489 0 255 255
2.81356 2.26944 0.835237 0 255 255
5.4185 3.25962 1.4611 0 255 255
5.42871 3.24258 1.4611 0 255 255
5.36345 3.18078 1.44084 0 255 255
5.44058 3.20347 1.45885 0 255 255
5.42538 3.17161 1.4521 0 255 255
5.43532 3.15455 1.4521 0 255 255
5.43677 3.13259 1.44985 0 255 255
5.3953 3.08741 1.43634 0 255 255
5.42191 3.08008 1.44084 0 255 255
5.44853 3.0726 1.44534 0 255 255
5.45816 3.05547 1.44534 0 255 255
5.46773 3.0383 1.44534 0 255 255
5.47725 3.02111 1.44534 0 255 255
5.48671 3.00389 1.44534 0 255 255
5.44476 2.95872 1.43184 0 255 255
5.4626 2.94623 1.43409 0 255 255
5.45465 2.91986 1.42958 0 255 255
5.91928 3.14601 1.5489 0 255 255
5.93775 3.13195 1.55115 0 255 255
5.42139 2.73023 1.40257 0 255 255
5.34279 2.66964 1.38005 0 255 255
5.43844 2.69612 1.40257 0 255 255
5.45563 2.68332 1.40482 0 255 255
5.46403 2.66617 1.40482 0 255 255
5.46315 2.64569 1.40257 0 255 255
5.47143 2.62852 1.40257 0 255 255
5.47966 2.61132 1.40257 0 255 255
5.48784 2.59409 1.40257 0 255 255
5.48714 2.5727 1.40032 0 255 255
5.4952 2.55545 1.40032 0 255 255
5.49435 2.53409 1.39806 0 255 255
5.49342 2.51277 1.39581 0 255 255
5.49198 2.49243 1.39356 0 255 255
5.49979 2.47516 1.39356 0 255 255
5.49864 2.4539 1.39131 0 255 255
5.49741 2.43267 1.38906 0 255 255
5.4961 2.41148 1.38681 0 255 255
5.49325 2.36918 1.38231 0 255 255
5.44692 2.32892 1.3688 0 255 255
5.46318 2.3156 1.37105 0 255 255
5.25484 2.20785 1.31702 0 255 255
5.38728 2.24471 1.34854 0 255 255
5.26823 2.17571 1.31702 0 255 255
5.49145 2.24773 1.37105 0 255 255
5.48946 2.2268 1.3688 0 255 255
5.46026 2.19501 1.35979 0 255 255
5.02361 2.00117 1.24948 0 255 255
4.97256 1.94472 1.23372 0 255 255
5.04224 1.95373 1.24948 0 255 255
5.4122 2.07755 1.33953 0 255 255
5.51596 2.07881 1.36204 0 255 255
5.13909 1.91836 1.26749 0 255 255
5.51978 2.04074 1.35979 0 255 255
5.52616 2.02338 1.35979 0 255 255
5.53249 2.00601 1.35979 0 255 255
