ply
format ascii 1.0
element vertex 1285
property float x
property float y
property float z
property uchar red
property uchar green
property uchar blue
end_header
-0.320114 -1.02777 -0.171226 0 255 255
-0.314442 -0.998499 -0.166513 0 255 255
-0.320749 -1.00686 -0.168084 0 255 255
-0.326938 -1.01525 -0.169655 0 255 255
-0.327069 -1.00482 -0.168084 0 255 255
-0.336397 -1.02255 -0.171226 0 255 255
-0.339608 -1.02149 -0.171226 0 255 255
-0.35225 -1.04851 -0.175938 0 255 255
-0.342845 -1.00999 -0.169655 0 255 255
-0.355627 -1.03693 -0.174367 0 255 255
-0.352417 -1.01715 -0.171226 0 255 255
-0.362135 -1.03468 -0.174367 0 255 255
-0.358801 -1.01491 -0.171226 0 255 255
-0.371951 -1.04168 -0.175938 0 255 255
-0.371871 -1.03122 -0.174367 0 255 255
-0.378488 -1.03932 -0.175938 0 255 255
-0.368117 -1.00105 -0.169655 0 255 255
-0.381573 -1.02767 -0.174367 0 255 255
-0.391733 -1.04496 -0.177509 0 255 255
-0.395196 -1.04365 -0.177509 0 255 255
-0.401999 -1.05163 -0.17908 0 255 255
-0.401746 -1.04115 -0.177509 0 255 255
-0.404833 -1.03995 -0.177509 0 255 255
-0.411893 -1.0478 -0.17908 0 255 255
-0.415182 -1.0465 -0.17908 0 255 255
-0.414978 -1.03595 -0.177509 0 255 255
-0.425449 -1.05302 -0.180651 0 255 255
-0.421299 -1.03339 -0.177509 0 255 255
-0.432057 -1.05033 -0.180651 0 255 255
-0.423997 -1.0216 -0.175938 0 255 255
-0.431019 -1.02937 -0.177509 0 255 255
-0.434251 -1.02802 -0.177509 0 255 255
-0.449093 -1.0539 -0.182222 0 255 255
-0.444602 -1.03434 -0.17908 0 255 255
-0.455706 -1.05106 -0.182222 0 255 255
-0.451092 -1.03153 -0.17908 0 255 255
-0.462301 -1.04818 -0.182222 0 255 255
-0.45355 -1.01965 -0.177509 0 255 255
-0.460793 -1.02723 -0.17908 0 255 255
-0.472159 -1.04377 -0.182222 0 255 255
-0.467239 -1.02431 -0.17908 0 255 255
-0.482834 -1.04976 -0.183793 0 255 255
-0.46951 -1.0124 -0.177509 0 255 255
-0.476872 -1.01987 -0.17908 0 255 255
-0.488496 -1.03623 -0.182222 0 255 255
-0.495988 -1.04361 -0.183793 0 255 255
-0.490729 -1.02423 -0.180651 0 255 255
-0.507013 -1.04928 -0.185364 0 255 255
-0.505983 -1.0388 -0.183793 0 255 255
-0.518133 -1.05484 -0.186934 0 255 255
-0.508119 -1.02675 -0.182222 0 255 255
-0.524567 -1.05166 -0.186934 0 255 255
-0.518996 -1.03236 -0.183793 0 255 255
-0.531164 -1.04834 -0.186934 0 255 255
-0.534455 -1.04667 -0.186934 0 255 255
-0.537741 -1.04498 -0.186934 0 255 255
-0.536474 -1.03452 -0.185364 0 255 255
-0.539722 -1.03283 -0.185364 0 255 255
-0.547565 -1.03987 -0.186934 0 255 255
-0.560087 -1.05559 -0.190076 0 255 255
-0.558744 -1.04512 -0.188505 0 255 255
-0.552658 -1.02597 -0.185364 0 255 255
-0.5653 -1.04159 -0.188505 0 255 255
-0.587522 -1.07447 -0.194789 0 255 255
-0.581364 -1.05531 -0.191647 0 255 255
-0.599053 -1.07939 -0.19636 0 255 255
-0.592802 -1.06026 -0.193218 0 255 255
-0.600977 -1.067 -0.194789 0 255 255
-0.604326 -1.0651 -0.194789 0 255 255
-0.163711 -0.270318 -0.050268 0 255 255
-0.164559 -0.269803 -0.050268 0 255 255
-0.165406 -0.269284 -0.050268 0 255 255
-0.171398 -0.277192 -0.051839 0 255 255
-0.167095 -0.26824 -0.050268 0 255 255
-0.167936 -0.267713 -0.050268 0 255 255
-0.179325 -0.283884 -0.05341 0 255 255
-0.165125 -0.257803 -0.048697 0 255 255
-0.17664 -0.273881 -0.051839 0 255 255
-0.177499 -0.273325 -0.051839 0 255 255
-0.167548 -0.256235 -0.048697 0 255 255
-0.162921 -0.247459 -0.047126 0 255 255
-0.169154 -0.255177 -0.048697 0 255 255
-0.164473 -0.24643 -0.047126 0 255 255
-0.159738 -0.237715 -0.045555 0 255 255
-0.177086 -0.261751 -0.050268 0 255 255
-0.172348 -0.253031 -0.048697 0 255 255
-0.161971 -0.236199 -0.045555 0 255 255
-0.168323 -0.243816 -0.047126 0 255 255
-0.174725 -0.251396 -0.048697 0 255 255
-0.192547 -0.275088 -0.05341 0 255 255
-0.19341 -0.274481 -0.05341 0 255 255
-0.194271 -0.273872 -0.05341 0 255 255
-0.212348 -0.297372 -0.058122 0 255 255
-0.190178 -0.26466 -0.051839 0 255 255
-0.191054 -0.264028 -0.051839 0 255 255
-0.203512 -0.279392 -0.054981 0 255 255
-0.309503 -0.422109 -0.083257 0 255 255
-0.346016 -0.46881 -0.092682 0 255 255
-0.353377 -0.475648 -0.094253 0 255 255
-0.354869 -0.474536 -0.094253 0 255 255
-0.356358 -0.473419 -0.094253 0 255 255
-0.345836 -0.456614 -0.091111 0 255 255
-0.269433 -0.353425 -0.070689 0 255 255
-0.234469 -0.305566 -0.061264 0 255 255
-0.181099 -0.234483 -0.047126 0 255 255
-0.163651 -0.210522 -0.042414 0 255 255
-0.176522 -0.225532 -0.045555 0 255 255
-0.183341 -0.232734 -0.047126 0 255 255
-0.165664 -0.208941 -0.042414 0 255 255
-0.16016 -0.200701 -0.040843 0 255 255
-0.16079 -0.200196 -0.040843 0 255 255
-0.161383 -0.199718 -0.040843 0 255 255
-0.137085 -0.168563 -0.034559 0 255 255
-0.1439 -0.175748 -0.03613 0 255 255
-0.144451 -0.175295 -0.03613 0 255 255
-0.132392 -0.159637 -0.032988 0 255 255
-0.14555 -0.174384 -0.03613 0 255 255
-0.139745 -0.166364 -0.034559 0 255 255
-0.153018 -0.181008 -0.037701 0 255 255
-0.172784 -0.203093 -0.042414 0 255 255
-0.147729 -0.172542 -0.03613 0 255 255
-0.161164 -0.18704 -0.039272 0 255 255
-0.161751 -0.186533 -0.039272 0 255 255
-0.175323 -0.200905 -0.042414 0 255 255
-0.169436 -0.192933 -0.040843 0 255 255
-0.196202 -0.222 -0.047126 0 255 255
-0.190335 -0.214003 -0.045555 0 255 255
-0.210766 -0.23548 -0.050268 0 255 255
-0.204895 -0.227479 -0.048697 0 255 255
-0.232139 -0.256103 -0.054981 0 255 255
-0.266219 -0.291854 -0.062835 0 255 255
-0.260457 -0.283741 -0.061264 0 255 255
-0.261347 -0.282921 -0.061264 0 255 255
-0.268958 -0.289332 -0.062835 0 255 255
-0.269866 -0.288486 -0.062835 0 255 255
-0.27754 -0.294828 -0.064406 0 255 255
-0.285257 -0.301124 -0.065977 0 255 255
-0.29983 -0.314523 -0.069119 0 255 255
-0.300817 -0.313579 -0.069119 0 255 255
-0.3018 -0.312633 -0.069119 0 255 255
-0.309662 -0.318767 -0.070689 0 255 255
-0.310662 -0.317792 -0.070689 0 255 255
-0.318585 -0.323855 -0.07226 0 255 255
-0.326549 -0.329871 -0.073831 0 255 255
-0.313699 -0.314796 -0.070689 0 255 255
-0.321679 -0.320782 -0.07226 0 255 255
-0.322685 -0.31977 -0.07226 0 255 255
-0.330668 -0.325742 -0.073831 0 255 255
-0.338747 -0.33161 -0.075402 0 255 255
-0.339787 -0.330544 -0.075402 0 255 255
-0.355085 -0.343141 -0.078544 0 255 255
-0.510423 -0.42106 -0.105249 0 255 255
-0.473553 -0.388151 -0.097394 0 255 255
-0.482428 -0.392898 -0.098965 0 255 255
-0.460629 -0.372743 -0.094253 0 255 255
-0.477191 -0.383671 -0.097394 0 255 255
-0.470678 -0.376006 -0.095824 0 255 255
-0.479592 -0.380665 -0.097394 0 255 255
-0.465276 -0.366926 -0.094253 0 255 255
-0.466427 -0.365462 -0.094253 0 255 255
-0.475365 -0.370062 -0.095824 0 255 255
-0.468714 -0.362524 -0.094253 0 255 255
-0.46985 -0.36105 -0.094253 0 255 255
-0.455283 -0.347587 -0.091111 0 255 255
-0.456372 -0.346154 -0.091111 0 255 255
-0.463028 -0.320137 -0.08954 0 255 255
-0.455835 -0.31317 -0.087969 0 255 255
-0.456872 -0.311657 -0.087969 0 255 255
-0.425145 -0.288061 -0.081686 0 255 255
-0.450627 -0.303266 -0.086398 0 255 255
-0.451578 -0.301849 -0.086398 0 255 255
-0.436069 -0.289504 -0.083257 0 255 255
-0.445221 -0.293569 -0.084827 0 255 255
-0.429617 -0.281348 -0.081686 0 255 255
-0.42222 -0.274612 -0.080115 0 255 255
-0.414785 -0.267926 -0.078544 0 255 255
-0.415625 -0.266622 -0.078544 0 255 255
-0.424789 -0.270621 -0.080115 0 255 255
-0.417292 -0.264005 -0.078544 0 255 255
-0.418119 -0.262692 -0.078544 0 255 255
-0.427321 -0.266605 -0.080115 0 255 255
-0.394576 -0.244457 -0.073831 0 255 255
-0.403753 -0.248391 -0.075402 0 255 255
-0.429815 -0.262566 -0.080115 0 255 255
-0.430638 -0.261214 -0.080115 0 255 255
-0.431456 -0.25986 -0.080115 0 255 255
-0.423794 -0.253435 -0.078544 0 255 255
-0.416097 -0.24706 -0.076973 0 255 255
-0.399815 -0.235791 -0.073831 0 255 255
-0.409076 -0.239524 -0.075402 0 255 255
-0.401288 -0.233274 -0.073831 0 255 255
-0.402019 -0.232012 -0.073831 0 255 255
-0.428453 -0.245477 -0.078544 0 255 255
-0.429265 -0.244055 -0.078544 0 255 255
-0.43863 -0.247559 -0.080115 0 255 255
-0.430832 -0.241277 -0.078544 0 255 255
-0.458026 -0.209508 -0.080115 0 255 255
-0.460587 -0.203816 -0.080115 0 255 255
-0.443138 -0.194432 -0.076973 0 255 255
-0.443747 -0.193039 -0.076973 0 255 255
-0.435283 -0.187733 -0.075402 0 255 255
-0.408628 -0.174716 -0.070689 0 255 255
-0.400082 -0.169578 -0.069119 0 255 255
-0.418823 -0.175971 -0.07226 0 255 255
-0.410257 -0.170857 -0.070689 0 255 255
-0.410792 -0.169568 -0.070689 0 255 255
-0.429603 -0.175755 -0.073831 0 255 255
-0.421001 -0.170694 -0.07226 0 255 255
-0.412371 -0.165689 -0.070689 0 255 255
-0.440416 -0.175352 -0.075402 0 255 255
-0.413404 -0.163094 -0.070689 0 255 255
-0.395519 -0.154604 -0.067548 0 255 255
-0.42363 -0.16406 -0.07226 0 255 255
-0.424144 -0.162729 -0.07226 0 255 255
-0.396958 -0.15087 -0.067548 0 255 255
-0.415915 -0.156581 -0.070689 0 255 255
-0.416405 -0.155273 -0.070689 0 255 255
-0.416891 -0.153964 -0.070689 0 255 255
-0.389548 -0.142477 -0.065977 0 255 255
-0.399279 -0.144616 -0.067548 0 255 255
-0.399731 -0.143361 -0.067548 0 255 255
-0.362954 -0.128885 -0.061264 0 255 255
-0.38199 -0.134295 -0.064406 0 255 255
-0.373083 -0.129848 -0.062835 0 255 255
-0.36413 -0.125522 -0.061264 0 255 255
-0.364523 -0.124378 -0.061264 0 255 255
-0.355555 -0.120072 -0.059693 0 255 255
-0.365297 -0.122085 -0.061264 0 255 255
-0.356302 -0.117836 -0.059693 0 255 255
-0.356671 -0.116716 -0.059693 0 255 255
-0.366431 -0.118637 -0.061264 0 255 255
-0.347992 -0.11146 -0.058122 0 255 255
-0.36717 -0.116332 -0.061264 0 255 255
-0.358109 -0.112225 -0.059693 0 255 255
-0.35846 -0.111099 -0.059693 0 255 255
-0.358807 -0.109972 -0.059693 0 255 255
-0.368602 -0.111709 -0.061264 0 255 255
-0.387872 -0.11622 -0.064406 0 255 255
-0.397705 -0.117805 -0.065977 0 255 255
-0.379117 -0.111005 -0.062835 0 255 255
-0.407923 -0.11805 -0.067548 0 255 255
-0.389302 -0.111336 -0.064406 0 255 255
-0.38965 -0.110113 -0.064406 0 255 255
-0.389994 -0.108888 -0.064406 0 255 255
-0.380814 -0.105037 -0.062835 0 255 255
-0.39067 -0.106436 -0.064406 0 255 255
-0.381466 -0.102642 -0.062835 0 255 255
-0.400876 -0.106515 -0.065977 0 255 255
-0.401209 -0.105255 -0.065977 0 255 255
-0.372856 -0.096566 -0.061264 0 255 255
-0.382726 -0.09784 -0.062835 0 255 255
-0.354304 -0.08939 -0.058122 0 255 255
-0.383316 -0.095501 -0.062835 0 255 255
-0.364449 -0.089517 -0.059693 0 255 255
-0.345533 -0.083721 -0.056552 0 255 255
-0.355399 -0.08493 -0.058122 0 255 255
-0.346038 -0.081609 -0.056552 0 255 255
-0.327054 -0.076048 -0.05341 0 255 255
-0.346543 -0.079433 -0.056552 0 255 255
-0.327525 -0.073991 -0.05341 0 255 255
-0.327756 -0.072962 -0.05341 0 255 255
-0.33763 -0.074047 -0.054981 0 255 255
-0.337861 -0.072986 -0.054981 0 255 255
-0.338089 -0.071925 -0.054981 0 255 255
-0.328647 -0.068838 -0.05341 0 255 255
-0.309517 -0.063816 -0.050268 0 255 255
-0.309716 -0.062844 -0.050268 0 255 255
-0.300227 -0.059937 -0.048697 0 255 255
-0.329486 -0.064702 -0.05341 0 255 255
-0.319991 -0.061794 -0.051839 0 255 255
-0.329886 -0.062631 -0.05341 0 255 255
-0.330081 -0.061594 -0.05341 0 255 255
-0.330273 -0.060557 -0.05341 0 255 255
-0.349901 -0.06302 -0.056552 0 255 255
-0.340372 -0.060201 -0.054981 0 255 255
-0.36002 -0.06251 -0.058122 0 255 255
-0.360214 -0.061378 -0.058122 0 255 255
-0.370146 -0.061875 -0.059693 0 255 255
-0.360583 -0.059177 -0.058122 0 255 255
-0.331515 -0.053338 -0.05341 0 255 255
-0.370703 -0.058448 -0.059693 0 255 255
-0.370885 -0.057283 -0.059693 0 255 255
-0.361298 -0.054641 -0.058122 0 255 255
-0.32239 -0.047721 -0.051839 0 255 255
-0.361634 -0.05237 -0.058122 0 255 255
-0.332462 -0.04708 -0.05341 0 255 255
-0.322826 -0.044681 -0.051839 0 255 255
-0.322964 -0.043666 -0.051839 0 255 255
-0.332891 -0.043944 -0.05341 0 255 255
-0.323232 -0.041636 -0.051839 0 255 255
-0.323362 -0.040621 -0.051839 0 255 255
-0.303882 -0.037204 -0.048697 0 255 255
-0.32361 -0.038588 -0.051839 0 255 255
-0.30411 -0.035294 -0.048697 0 255 255
-0.323846 -0.036554 -0.051839 0 255 255
-0.314143 -0.03446 -0.050268 0 255 255
-0.314249 -0.033473 -0.050268 0 255 255
-0.294706 -0.030455 -0.047126 0 255 255
-0.314448 -0.031552 -0.050268 0 255 255
-0.304716 -0.029609 -0.048697 0 255 255
-0.31464 -0.029576 -0.050268 0 255 255
-0.304896 -0.027694 -0.048697 0 255 255
-0.31482 -0.027599 -0.050268 0 255 255
-0.285383 -0.024115 -0.045555 0 255 255
-0.314987 -0.02562 -0.050268 0 255 255
-0.30522 -0.023861 -0.048697 0 255 255
-0.305293 -0.022902 -0.048697 0 255 255
-0.295513 -0.021235 -0.047126 0 255 255
-0.295579 -0.020306 -0.047126 0 255 255
-0.305496 -0.020023 -0.048697 0 255 255
-0.2957 -0.018448 -0.047126 0 255 255
-0.295757 -0.017519 -0.047126 0 255 255
-0.28595 -0.016037 -0.045555 0 255 255
-0.285999 -0.015139 -0.045555 0 255 255
-0.276179 -0.013797 -0.043985 0 255 255
-0.286086 -0.013391 -0.045555 0 255 255
-0.286127 -0.012493 -0.045555 0 255 255
-0.276297 -0.011194 -0.043985 0 255 255
-0.266462 -0.009957 -0.042414 0 255 255
-0.276362 -0.009458 -0.043985 0 255 255
-0.286261 -0.008896 -0.045555 0 255 255
-0.286288 -0.007997 -0.045555 0 255 255
-0.276439 -0.006853 -0.043985 0 255 255
-0.30608 -0.006625 -0.048697 0 255 255
-0.286351 -0.005298 -0.045555 0 255 255
-0.276491 -0.004247 -0.043985 0 255 255
-0.306128 -0.003794 -0.048697 0 255 255
-0.351182 0.055433 -0.056552 0 255 255
-0.360757 0.058107 -0.058122 0 255 255
-0.360572 0.05924 -0.058122 0 255 255
-0.331164 0.055477 -0.05341 0 255 255
-0.360193 0.061504 -0.058122 0 255 255
-0.321079 0.055864 -0.051839 0 255 255
-0.320902 0.056873 -0.051839 0 255 255
-0.311003 0.056126 -0.050268 0 255 255
-0.301112 0.055319 -0.048697 0 255 255
-0.320352 0.059894 -0.051839 0 255 255
-0.339566 0.064591 -0.054981 0 255 255
-0.349057 0.067534 -0.056552 0 255 255
-0.339165 0.066665 -0.054981 0 255 255
-0.319585 0.063859 -0.051839 0 255 255
-0.290348 0.058967 -0.047126 0 255 255
-0.290161 0.059878 -0.047126 0 255 255
-0.289972 0.06079 -0.047126 0 255 255
-0.328417 0.069927 -0.05341 0 255 255
-0.357154 0.077219 -0.058122 0 255 255
-0.376202 0.082576 -0.061264 0 255 255
-0.414499 0.092348 -0.067548 0 255 255
-0.433472 0.098005 -0.070689 0 255 255
-0.442805 0.101497 -0.07226 0 255 255
-0.461723 0.107361 -0.075402 0 255 255
-0.432547 0.102011 -0.070689 0 255 255
-0.470644 0.112557 -0.076973 0 255 255
-0.441495 0.107054 -0.07226 0 255 255
-0.431566 0.106083 -0.070689 0 255 255
-0.45998 0.1146 -0.075402 0 255 255
-0.440467 0.11121 -0.07226 0 255 255
-0.45925 0.117488 -0.075402 0 255 255
-0.439759 0.113975 -0.07226 0 255 255
-0.458524 0.120292 -0.075402 0 255 255
-0.448599 0.119195 -0.073831 0 255 255
-0.448223 0.120604 -0.073831 0 255 255
-0.45737 0.124608 -0.075402 0 255 255
-0.476017 0.131296 -0.078544 0 255 255
-0.447066 0.124823 -0.073831 0 255 255
-0.484686 0.13697 -0.080115 0 255 255
-0.484254 0.138492 -0.080115 0 255 255
-0.455356 0.131776 -0.075402 0 255 255
-0.464418 0.135981 -0.076973 0 255 255
-0.463989 0.13744 -0.076973 0 255 255
-0.454094 0.136062 -0.075402 0 255 255
-0.453665 0.137488 -0.075402 0 255 255
-0.443788 0.136019 -0.073831 0 255 255
-0.443383 0.137335 -0.073831 0 255 255
-0.442949 0.138727 -0.073831 0 255 255
-0.442511 0.140118 -0.073831 0 255 255
-0.451474 0.144518 -0.075402 0 255 255
-0.451018 0.145936 -0.075402 0 255 255
-0.459944 0.150422 -0.076973 0 255 255
-0.468846 0.154965 -0.078544 0 255 255
-0.449623 0.15018 -0.075402 0 255 255
-0.458506 0.15475 -0.076973 0 255 255
-0.476712 0.162565 -0.080115 0 255 255
-0.476228 0.163978 -0.080115 0 255 255
-0.457055 0.158985 -0.076973 0 255 255
-0.475188 0.166967 -0.080115 0 255 255
-0.493275 0.175066 -0.083257 0 255 255
-0.492723 0.176614 -0.083257 0 255 255
-0.492165 0.178161 -0.083257 0 255 255
-0.491603 0.179707 -0.083257 0 255 255
-0.491036 0.18125 -0.083257 0 255 255
-0.499751 0.186154 -0.084827 0 255 255
-0.48992 0.184246 -0.083257 0 255 255
-0.498572 0.18929 -0.084827 0 255 255
-0.497974 0.190855 -0.084827 0 255 255
-0.497372 0.192419 -0.084827 0 255 255
-0.496765 0.19398 -0.084827 0 255 255
-0.51453 0.202782 -0.087969 0 255 255
-0.495537 0.197098 -0.084827 0 255 255
-0.504116 0.202244 -0.086398 0 255 255
-0.512596 0.207622 -0.087969 0 255 255
-0.493657 0.201759 -0.084827 0 255 255
-0.492985 0.203395 -0.084827 0 255 255
-0.501534 0.208563 -0.086398 0 255 255
-0.49177 0.206317 -0.084827 0 255 255
-0.509309 0.215559 -0.087969 0 255 255
-0.508629 0.217159 -0.087969 0 255 255
-0.498874 0.214849 -0.086398 0 255 255
-0.498197 0.216415 -0.086398 0 255 255
-0.50656 0.221943 -0.087969 0 255 255
-0.50586 0.223533 -0.087969 0 255 255
-0.514216 0.229051 -0.08954 0 255 255
-0.504485 0.226619 -0.087969 0 255 255
-0.512767 0.232278 -0.08954 0 255 255
-0.503051 0.229784 -0.087969 0 255 255
-0.520267 0.239626 -0.091111 0 255 255
-0.519512 0.24126 -0.091111 0 255 255
-0.509807 0.238703 -0.08954 0 255 255
-0.517986 0.244519 -0.091111 0 255 255
-0.517215 0.246145 -0.091111 0 255 255
-0.525343 0.252041 -0.092682 0 255 255
-0.515702 0.2493 -0.091111 0 255 255
-0.514916 0.250919 -0.091111 0 255 255
-0.522989 0.256889 -0.092682 0 255 255
-0.52218 0.258531 -0.092682 0 255 255
-0.530202 0.26458 -0.094253 0 255 255
-0.520545 0.261807 -0.092682 0 255 255
-0.528529 0.267906 -0.094253 0 255 255
-0.527685 0.269565 -0.094253 0 255 255
-0.50932 0.262092 -0.091111 0 255 255
-0.508494 0.263691 -0.091111 0 255 255
-0.516416 0.269861 -0.092682 0 255 255
-0.506827 0.266881 -0.091111 0 255 255
-0.532158 0.282358 -0.095824 0 255 255
-0.513849 0.274716 -0.092682 0 255 255
-0.521728 0.280921 -0.094253 0 255 255
-0.529523 0.287268 -0.095824 0 255 255
-0.50262 0.274721 -0.091111 0 255 255
-0.519057 0.285826 -0.094253 0 255 255
-0.500884 0.277873 -0.091111 0 255 255
-0.50863 0.284264 -0.092682 0 255 255
-0.524946 0.29555 -0.095824 0 255 255
-0.524015 0.297198 -0.095824 0 255 255
-0.523078 0.298843 -0.095824 0 255 255
-0.530696 0.305411 -0.097394 0 255 255
-0.529734 0.307076 -0.097394 0 255 255
-0.528767 0.308739 -0.097394 0 255 255
-0.510821 0.300297 -0.094253 0 255 255
-0.518373 0.306931 -0.095824 0 255 255
-0.508924 0.3035 -0.094253 0 255 255
-0.516435 0.310183 -0.095824 0 255 255
-0.515458 0.311803 -0.095824 0 255 255
-0.506041 0.308283 -0.094253 0 255 255
-0.521906 0.320201 -0.097394 0 255 255
-0.529299 0.327029 -0.098965 0 255 255
-0.528326 0.328599 -0.098965 0 255 255
-0.510552 0.319772 -0.095824 0 255 255
-0.509545 0.321375 -0.095824 0 255 255
-0.516869 0.328269 -0.097394 0 255 255
-0.532476 0.340532 -0.100536 0 255 255
-0.514797 0.33151 -0.097394 0 255 255
-0.522098 0.338407 -0.098965 0 255 255
-0.521032 0.340046 -0.098965 0 255 255
-0.511708 0.336257 -0.097394 0 255 255
-0.518886 0.343313 -0.098965 0 255 255
-0.517804 0.344941 -0.098965 0 255 255
-0.533122 0.357568 -0.102107 0 255 255
-0.523812 0.353715 -0.100536 0 255 255
-0.522698 0.355358 -0.100536 0 255 255
-0.521641 0.356908 -0.100536 0 255 255
-0.536783 0.369749 -0.103678 0 255 255
-0.535619 0.371434 -0.103678 0 255 255
-0.526352 0.367461 -0.102107 0 255 255
-0.533275 0.374792 -0.103678 0 255 255
-0.540157 0.382169 -0.105249 0 255 255
-0.538953 0.383864 -0.105249 0 255 255
-0.529719 0.379801 -0.103678 0 255 255
-0.52859 0.381371 -0.103678 0 255 255
-0.519398 0.377226 -0.102107 0 255 255
-0.51821 0.378856 -0.102107 0 255 255
-0.524972 0.386336 -0.103678 0 255 255
-0.507884 0.376226 -0.100536 0 255 255
-0.482948 0.36011 -0.095824 0 255 255
-0.481878 0.361541 -0.095824 0 255 255
-0.472858 0.357101 -0.094253 0 255 255
-0.471734 0.358585 -0.094253 0 255 255
-0.447075 0.342062 -0.08954 0 255 255
-0.430349 0.331414 -0.086398 0 255 255
-0.437111 0.338814 -0.087969 0 255 255
-0.428317 0.334036 -0.086398 0 255 255
-0.427265 0.33538 -0.086398 0 255 255
-0.42621 0.336721 -0.086398 0 255 255
-0.417419 0.331912 -0.084827 0 255 255
-0.416375 0.333221 -0.084827 0 255 255
-0.415326 0.334528 -0.084827 0 255 255
-0.414273 0.335831 -0.084827 0 255 255
-0.413216 0.337131 -0.084827 0 255 255
-0.419787 0.344694 -0.086398 0 255 255
-0.416581 0.348563 -0.086398 0 255 255
-0.430592 0.362592 -0.08954 0 255 255
-0.444519 0.376713 -0.092682 0 255 255
-0.443333 0.378108 -0.092682 0 255 255
-0.457131 0.392363 -0.095824 0 255 255
-0.455897 0.393797 -0.095824 0 255 255
-0.454657 0.395227 -0.095824 0 255 255
-0.453483 0.396575 -0.095824 0 255 255
-0.459648 0.404522 -0.097394 0 255 255
-0.450982 0.399416 -0.095824 0 255 255
-0.46447 0.413973 -0.098965 0 255 255
-0.455887 0.408756 -0.097394 0 255 255
-0.4546 0.410187 -0.097394 0 255 255
-0.438686 0.398335 -0.094253 0 255 255
-0.437433 0.399711 -0.094253 0 255 255
-0.428905 0.394399 -0.092682 0 255 255
-0.413167 0.382329 -0.08954 0 255 255
-0.404737 0.376895 -0.087969 0 255 255
-0.40355 0.378165 -0.087969 0 255 255
-0.395241 0.372586 -0.086398 0 255 255
-0.401233 0.380623 -0.087969 0 255 255
-0.400035 0.381881 -0.087969 0 255 255
-0.405955 0.389978 -0.08954 0 255 255
-0.42603 0.411843 -0.094253 0 255 255
-0.45305 0.440725 -0.100536 0 255 255
-0.430564 0.421346 -0.095824 0 255 255
-0.457385 0.450414 -0.102107 0 255 255
-0.392761 0.469737 -0.097394 0 255 255
-0.384973 0.463372 -0.095824 0 255 255
-0.377228 0.456963 -0.094253 0 255 255
-0.363264 0.442875 -0.091111 0 255 255
-0.336986 0.413333 -0.084827 0 255 255
-0.323253 0.399042 -0.081686 0 255 255
-0.315806 0.392362 -0.080115 0 255 255
-0.302236 0.377927 -0.076973 0 255 255
-0.307258 0.386553 -0.078544 0 255 255
-0.362392 0.529855 -0.102107 0 255 255
-0.360725 0.530991 -0.102107 0 255 255
-0.370103 0.548494 -0.105249 0 255 255
-0.368474 0.54959 -0.105249 0 255 255
-0.366746 0.550745 -0.105249 0 255 255
-0.34867 0.527183 -0.100536 0 255 255
-0.363278 0.553038 -0.105249 0 255 255
-0.334559 0.512821 -0.097394 0 255 255
-0.354426 0.547022 -0.103678 0 255 255
-0.347456 0.539767 -0.102107 0 255 255
-0.319162 0.499252 -0.094253 0 255 255
-0.312299 0.491914 -0.092682 0 255 255
-0.321286 0.509601 -0.095824 0 255 255
-0.144541 0.258625 -0.047126 0 255 255
-0.148519 0.267714 -0.048697 0 255 255
-0.14763 0.268205 -0.048697 0 255 255
-0.156257 0.286001 -0.051839 0 255 255
-0.160117 0.295144 -0.05341 0 255 255
-0.159189 0.295646 -0.05341 0 255 255
-0.143719 0.281457 -0.050268 0 255 255
-0.142834 0.281907 -0.050268 0 255 255
-0.136652 0.273961 -0.048697 0 255 255
-2.09053 4.53888 -0.794864 0 255 255
-2.10499 4.60831 -0.80586 0 255 255
-2.06197 4.55193 -0.794864 0 255 255
-2.02822 4.51299 -0.78701 0 255 255
-2.01001 4.51032 -0.785439 0 255 255
-2.00381 4.53468 -0.788581 0 255 255
-1.99748 4.55904 -0.791722 0 255 255
-1.94458 4.47437 -0.776014 0 255 255
-1.95397 4.53488 -0.785439 0 255 255
-1.92419 4.50466 -0.779155 0 255 255
-1.91003 4.51069 -0.779155 0 255 255
-1.93407 4.60773 -0.794864 0 255 255
-1.90062 4.56819 -0.78701 0 255 255
-1.87576 4.54642 -0.782297 0 255 255
-1.88389 4.60714 -0.791722 0 255 255
-1.85457 4.57642 -0.785439 0 255 255
-1.85859 4.62805 -0.793293 0 255 255
-1.84119 4.62437 -0.791722 0 255 255
-1.80491 4.57501 -0.782297 0 255 255
-1.79053 4.58066 -0.782297 0 255 255
-1.80466 4.65993 -0.794864 0 255 255
-1.74482 4.54541 -0.774443 0 255 255
-1.72 4.52317 -0.76973 0 255 255
-1.71623 4.55628 -0.774443 0 255 255
-1.70536 4.57091 -0.776014 0 255 255
-1.71837 4.65035 -0.788581 0 255 255
-1.77163 4.84121 -0.819998 0 255 255
-1.69585 4.67962 -0.791722 0 255 255
-1.66446 4.63845 -0.783868 0 255 255
-1.64738 4.63406 -0.782297 0 255 255
-1.62626 4.62058 -0.779155 0 255 255
-1.63123 4.68163 -0.788581 0 255 255
-1.64872 4.78009 -0.804289 0 255 255
-1.66241 4.86936 -0.818427 0 255 255
-1.63446 4.83713 -0.812144 0 255 255
-1.66397 4.97308 -0.834136 0 255 255
-1.64213 4.95953 -0.830994 0 255 255
-1.62654 4.96467 -0.830994 0 255 255
-2.50319 7.72237 -1.29126 0 255 255
-2.45462 7.73795 -1.29126 0 255 255
-2.43461 7.75462 -1.29283 0 255 255
-2.40731 7.7528 -1.29126 0 255 255
-2.38584 7.76976 -1.29283 0 255 255
-2.36429 7.78667 -1.2944 0 255 255
-2.34117 7.79365 -1.2944 0 255 255
-2.31387 7.7915 -1.29283 0 255 255
-2.28938 7.79873 -1.29283 0 255 255
-2.26762 7.81537 -1.2944 0 255 255
-2.24305 7.82246 -1.2944 0 255 255
-2.21847 7.82946 -1.2944 0 255 255
-2.1912 7.82689 -1.29283 0 255 255
-2.16923 7.84325 -1.2944 0 255 255
-2.14458 7.85003 -1.2944 0 255 255
-2.12505 7.87579 -1.29754 0 255 255
-2.09913 7.87252 -1.29597 0 255 255
-2.07188 7.86953 -1.2944 0 255 255
-2.04962 7.88556 -1.29597 0 255 255
-2.02484 7.89196 -1.29597 0 255 255
-2.00004 7.89828 -1.29597 0 255 255
-1.97761 7.9141 -1.29754 0 255 255
-1.95412 7.91994 -1.29754 0 255 255
-1.92923 7.92604 -1.29754 0 255 255
-1.90432 7.93206 -1.29754 0 255 255
-1.88166 7.94761 -1.29912 0 255 255
-1.86032 7.96278 -1.30069 0 255 255
-1.83752 7.97821 -1.30226 0 255 255
-1.81025 7.97431 -1.30069 0 255 255
-1.78519 7.97996 -1.30069 0 255 255
-1.76011 7.98553 -1.30069 0 255 255
-1.73712 8.00067 -1.30226 0 255 255
-1.70991 7.99643 -1.30069 0 255 255
-1.68477 8.00176 -1.30069 0 255 255
-1.66364 8.02635 -1.30383 0 255 255
-1.63447 8.01219 -1.30069 0 255 255
-1.61458 8.03637 -1.30383 0 255 255
-1.58932 8.0414 -1.30383 0 255 255
-1.56594 8.05605 -1.3054 0 255 255
-1.54062 8.06092 -1.3054 0 255 255
-1.51305 8.04605 -1.30226 0 255 255
-1.49135 8.07019 -1.3054 0 255 255
-1.46599 8.07483 -1.3054 0 255 255
-1.44061 8.0794 -1.3054 0 255 255
-1.41834 8.09336 -1.30697 0 255 255
-1.39124 8.08805 -1.3054 0 255 255
-1.36746 8.10212 -1.30697 0 255 255
-1.342 8.10637 -1.30697 0 255 255
-1.31653 8.11055 -1.30697 0 255 255
-1.29104 8.11464 -1.30697 0 255 255
-1.26696 8.11844 -1.30697 0 255 255
-1.24145 8.12238 -1.30697 0 255 255
-1.21592 8.12624 -1.30697 0 255 255
-1.19182 8.13979 -1.30854 0 255 255
-1.16766 8.14329 -1.30854 0 255 255
-1.14345 8.1567 -1.31011 0 255 255
-1.11916 8.17004 -1.31168 0 255 255
-1.09217 8.16372 -1.31011 0 255 255
-1.06652 8.16711 -1.31011 0 255 255
-1.04211 8.18022 -1.31168 0 255 255
-1.01661 8.17348 -1.31011 0 255 255
-0.992116 8.18643 -1.31168 0 255 255
-0.966394 8.18951 -1.31168 0 255 255
-0.940659 8.1925 -1.31168 0 255 255
-0.914918 8.19542 -1.31168 0 255 255
-0.890234 8.20807 -1.31325 0 255 255
-0.866909 8.2205 -1.31483 0 255 255
-0.839071 8.20353 -1.31168 0 255 255
-0.813293 8.20613 -1.31168 0 255 255
-0.788457 8.21847 -1.31325 0 255 255
-0.762632 8.22091 -1.31325 0 255 255
-0.735918 8.21343 -1.31168 0 255 255
-0.712398 8.22541 -1.31325 0 255 255
-0.684909 8.20793 -1.31011 0 255 255
-0.659916 8.21988 -1.31168 0 255 255
-0.634086 8.22192 -1.31168 0 255 255
-0.60898 8.23372 -1.31325 0 255 255
-0.583111 8.23559 -1.31325 0 255 255
-0.558675 8.23728 -1.31325 0 255 255
-0.533429 8.24885 -1.31483 0 255 255
-0.5063 8.23077 -1.31168 0 255 255
-0.481013 8.24218 -1.31325 0 255 255
-0.454574 8.23379 -1.31168 0 255 255
-0.42922 8.24504 -1.31325 0 255 255
-0.405236 8.25614 -1.31483 0 255 255
-0.379299 8.25738 -1.31483 0 255 255
-0.353353 8.25853 -1.31483 0 255 255
-0.327408 8.2596 -1.31483 0 255 255
-0.30182 8.27045 -1.3164 0 255 255
-0.275175 8.25162 -1.31325 0 255 255
-0.250693 8.2524 -1.31325 0 255 255
-0.224763 8.25315 -1.31325 0 255 255
-0.199074 8.26369 -1.31483 0 255 255
-0.17332 8.27414 -1.3164 0 255 255
-0.147147 8.26477 -1.31483 0 255 255
-0.121328 8.27507 -1.3164 0 255 255
-0.096888 8.28527 -1.31797 0 255 255
-0.070776 8.27566 -1.3164 0 255 255
-0.044778 8.27584 -1.3164 0 255 255
-0.018799 8.28581 -1.31797 0 255 255
0.00723 8.28583 -1.31797 0 255 255
0.033224 8.27589 -1.3164 0 255 255
0.059221 8.27575 -1.3164 0 255 255
0.085219 8.27552 -1.3164 0 255 255
0.110037 8.29498 -1.31954 0 255 255
0.136094 8.29459 -1.31954 0 255 255
0.162347 8.304 -1.32111 0 255 255
0.188208 8.29358 -1.31954 0 255 255
0.213067 8.30285 -1.32111 0 255 255
0.239152 8.30214 -1.32111 0 255 255
0.264916 8.29148 -1.31954 0 255 255
0.291312 8.30048 -1.32111 0 255 255
0.315937 8.29958 -1.32111 0 255 255
0.342008 8.29854 -1.32111 0 255 255
0.368079 8.29743 -1.32111 0 255 255
0.394611 8.30609 -1.32268 0 255 255
0.419707 8.28509 -1.31954 0 255 255
0.446789 8.30345 -1.32268 0 255 255
0.472313 8.29215 -1.32111 0 255 255
0.499549 8.31034 -1.32425 0 255 255
0.522959 8.28911 -1.32111 0 255 255
0.549649 8.29728 -1.32268 0 255 255
0.575711 8.29551 -1.32268 0 255 255
0.601772 8.29366 -1.32268 0 255 255
0.627867 8.31153 -1.32582 0 255 255
0.653199 8.29967 -1.32425 0 255 255
0.680074 8.30742 -1.32582 0 255 255
0.704494 8.28557 -1.32268 0 255 255
0.732258 8.30299 -1.32582 0 255 255
0.757443 8.29081 -1.32425 0 255 255
0.784413 8.29822 -1.32582 0 255 255
0.810477 8.29572 -1.32582 0 255 255
0.836076 8.3031 -1.32739 0 255 255
0.862159 8.30043 -1.32739 0 255 255
0.890336 8.31732 -1.33053 0 255 255
0.914296 8.29485 -1.32739 0 255 255
0.941461 8.30175 -1.32896 0 255 255
0.967536 8.29875 -1.32896 0 255 255
0.992157 8.29585 -1.32896 0 255 255
1.01822 8.29269 -1.32896 0 255 255
1.04179 8.26985 -1.32582 0 255 255
1.07156 8.29592 -1.33053 0 255 255
1.09632 8.28273 -1.32896 0 255 255
1.12234 8.27924 -1.32896 0 255 255
1.1469 8.27587 -1.32896 0 255 255
1.17289 8.27223 -1.32896 0 255 255
1.19887 8.2685 -1.32896 0 255 255
1.22484 8.2647 -1.32896 0 255 255
1.24936 8.26103 -1.32896 0 255 255
1.27682 8.26682 -1.33053 0 255 255
1.30124 8.25301 -1.32896 0 255 255
1.32873 8.25864 -1.33053 0 255 255
1.35147 8.23493 -1.32739 0 255 255
1.3806 8.25012 -1.33053 0 255 255
1.40817 8.25548 -1.3321 0 255 255
1.4341 8.25102 -1.3321 0 255 255
1.45857 8.24672 -1.3321 0 255 255
1.48272 8.23238 -1.33053 0 255 255
1.50892 8.23766 -1.3321 0 255 255
1.53299 8.22317 -1.33053 0 255 255
1.55881 8.21832 -1.33053 0 255 255
1.58836 8.23277 -1.33368 0 255 255
1.61612 8.23743 -1.33525 0 255 255
1.64006 8.22263 -1.33368 0 255 255
1.66392 8.20776 -1.3321 0 255 255
1.69169 8.21216 -1.33368 0 255 255
1.71403 8.19744 -1.3321 0 255 255
1.74387 8.21134 -1.33525 0 255 255
1.76758 8.19616 -1.33368 0 255 255
1.79121 8.18092 -1.3321 0 255 255
1.81975 8.19485 -1.33525 0 255 255
1.84332 8.17946 -1.33368 0 255 255
1.86978 8.18358 -1.33525 0 255 255
1.89102 8.15843 -1.3321 0 255 255
1.9189 8.16206 -1.33368 0 255 255
1.94453 8.15599 -1.33368 0 255 255
1.97247 8.15944 -1.33525 0 255 255
2.00045 8.1628 -1.33682 0 255 255
2.0237 8.14689 -1.33525 0 255 255
2.04687 8.13091 -1.33368 0 255 255
2.07098 8.1248 -1.33368 0 255 255
2.10144 8.13738 -1.33682 0 255 255
2.127 8.13074 -1.33682 0 255 255
2.15253 8.12402 -1.33682 0 255 255
2.17406 8.10806 -1.33525 0 255 255
2.20211 8.11072 -1.33682 0 255 255
2.22497 8.09424 -1.33525 0 255 255
2.25568 8.10623 -1.33839 0 255 255
2.28113 8.09911 -1.33839 0 255 255
2.30386 8.0824 -1.33682 0 255 255
2.32783 8.07553 -1.33682 0 255 255
2.35319 8.06818 -1.33682 0 255 255
2.37853 8.06075 -1.33682 0 255 255
2.40384 8.05324 -1.33682 0 255 255
2.43057 8.05552 -1.33839 0 255 255
2.45586 8.04785 -1.33839 0 255 255
2.48114 8.04009 -1.33839 0 255 255
2.50344 8.02283 -1.33682 0 255 255
2.53161 8.02434 -1.33839 0 255 255
2.5568 8.01635 -1.33839 0 255 255
2.58197 8.00828 -1.33839 0 255 255
2.60712 8.00013 -1.33839 0 255 255
2.63224 7.9919 -1.33839 0 255 255
2.65733 7.98359 -1.33839 0 255 255
2.68101 7.97567 -1.33839 0 255 255
2.70923 7.97656 -1.33996 0 255 255
2.73428 7.96801 -1.33996 0 255 255
2.7593 7.95938 -1.33996 0 255 255
2.78102 7.94135 -1.33839 0 255 255
0.787073 2.20427 -0.372298 0 255 255
0.797345 2.21108 -0.373869 0 255 255
0.828461 2.23124 -0.378581 0 255 255
0.828533 2.21013 -0.37544 0 255 255
0.831593 2.19843 -0.373869 0 255 255
0.842018 2.20503 -0.37544 0 255 255
0.834733 2.16551 -0.369156 0 255 255
3.06891 7.88761 -1.34624 0 255 255
3.08508 7.86008 -1.3431 0 255 255
3.10612 7.84117 -1.34153 0 255 255
3.13074 7.83137 -1.34153 0 255 255
3.15163 7.81234 -1.33996 0 255 255
3.17988 7.81154 -1.34153 0 255 255
3.20441 7.80152 -1.34153 0 255 255
0.838749 2.19762 -0.289619 0 255 255
0.838512 2.17645 -0.287175 0 255 255
4.08135 10.4037 -1.37599 0 255 255
4.11402 10.3908 -1.37599 0 255 255
4.14664 10.3778 -1.37599 0 255 255
4.18293 10.374 -1.37722 0 255 255
4.21176 10.3516 -1.37599 0 255 255
4.24426 10.3383 -1.37599 0 255 255
4.28052 10.3341 -1.37722 0 255 255
4.30734 10.3122 -1.37599 0 255 255
4.33971 10.2986 -1.37599 0 255 255
4.37205 10.2849 -1.37599 0 255 255
4.40824 10.2803 -1.37722 0 255 255
4.44052 10.2663 -1.37722 0 255 255
4.47275 10.2523 -1.37722 0 255 255
4.50315 10.239 -1.37722 0 255 255
4.5353 10.2248 -1.37722 0 255 255
4.56739 10.2105 -1.37722 0 255 255
4.59945 10.1961 -1.37722 0 255 255
4.63146 10.1816 -1.37722 0 255 255
4.66756 10.1761 -1.37844 0 255 255
4.69534 10.1523 -1.37722 0 255 255
4.7314 10.1465 -1.37844 0 255 255
4.76326 10.1316 -1.37844 0 255 255
4.79506 10.1166 -1.37844 0 255 255
4.82506 10.1023 -1.37844 0 255 255
4.86108 10.0961 -1.37966 0 255 255
4.89277 10.0807 -1.37966 0 255 255
4.92878 10.0742 -1.38088 0 255 255
4.9604 10.0587 -1.38088 0 255 255
4.9964 10.052 -1.3821 0 255 255
5.0262 10.0371 -1.3821 0 255 255
5.05324 10.0124 -1.38088 0 255 255
5.08916 10.0053 -1.3821 0 255 255
5.12057 9.98927 -1.3821 0 255 255
5.15019 9.97404 -1.3821 0 255 255
5.1815 9.95781 -1.3821 0 255 255
5.21276 9.94148 -1.3821 0 255 255
5.2486 9.93383 -1.38333 0 255 255
5.27978 9.91729 -1.38333 0 255 255
5.31091 9.90066 -1.38333 0 255 255
5.34026 9.88486 -1.38333 0 255 255
5.37129 9.86803 -1.38333 0 255 255
5.41181 9.86851 -1.38577 0 255 255
5.43319 9.83409 -1.38333 0 255 255
5.46888 9.82564 -1.38455 0 255 255
5.49487 9.79976 -1.38333 0 255 255
5.53051 9.79109 -1.38455 0 255 255
5.56124 9.77366 -1.38455 0 255 255
5.58699 9.74753 -1.38333 0 255 255
5.61758 9.72993 -1.38333 0 255 255
5.64643 9.71322 -1.38333 0 255 255
5.67691 9.69544 -1.38333 0 255 255
5.7023 9.66901 -1.3821 0 255 255
5.73772 9.65958 -1.38333 0 255 255
5.76803 9.6415 -1.38333 0 255 255
5.7983 9.62333 -1.38333 0 255 255
5.82682 9.60609 -1.38333 0 255 255
5.8518 9.57927 -1.3821 0 255 255
5.88707 9.56929 -1.38333 0 255 255
5.9171 9.55075 -1.38333 0 255 255
5.94708 9.53211 -1.38333 0 255 255
5.96643 9.49657 -1.38088 0 255 255
5.99989 9.48722 -1.3821 0 255 255
6.02433 9.45995 -1.38088 0 255 255
6.05938 9.44933 -1.3821 0 255 255
6.08904 9.43025 -1.3821 0 255 255
6.11863 9.41107 -1.3821 0 255 255
6.1536 9.40011 -1.38333 0 255 255
6.17218 9.36415 -1.38088 0 255 255
6.19608 9.33645 -1.37966 0 255 255
6.24192 9.34169 -1.38333 0 255 255
6.2657 9.3138 -1.3821 0 255 255
6.2933 9.29517 -1.3821 0 255 255
6.32248 9.27535 -1.3821 0 255 255
6.35158 9.25544 -1.3821 0 255 255
6.38063 9.23545 -1.3821 0 255 255
6.40961 9.21535 -1.3821 0 255 255
6.43853 9.19517 -1.3821 0 255 255
6.4715 9.18414 -1.38333 0 255 255
6.50606 9.17186 -1.38455 0 255 255
6.54061 9.15946 -1.38577 0 255 255
6.56356 9.1308 -1.38455 0 255 255
6.59803 9.11818 -1.38577 0 255 255
6.62081 9.08938 -1.38455 0 255 255
6.65948 9.08571 -1.38699 0 255 255
6.6821 9.05676 -1.38577 0 255 255
6.7046 9.02775 -1.38455 0 255 255
6.73293 9.00664 -1.38455 0 255 255
6.76119 8.98545 -1.38455 0 255 255
6.80736 8.9879 -1.38821 0 255 255
6.834 8.96766 -1.38821 0 255 255
6.86214 8.94614 -1.38821 0 255 255
6.89628 8.9324 -1.38944 0 255 255
6.91213 8.89501 -1.38699 0 255 255
6.95226 8.88889 -1.38944 0 255 255
6.98629 8.87481 -1.39066 0 255 255
7.00798 8.84503 -1.38944 0 255 255
7.02954 8.81522 -1.38821 0 255 255
7.07584 8.81631 -1.39188 0 255 255
7.09726 8.78631 -1.39066 0 255 255
7.13109 8.77168 -1.39188 0 255 255
7.15861 8.74923 -1.39188 0 255 255
1.85522 2.23939 -0.358052 0 255 255
1.85589 2.22593 -0.35683 0 255 255
1.85649 2.21248 -0.355608 0 255 255
7.30639 8.60017 -1.38944 0 255 255
7.32693 8.56963 -1.38821 0 255 255
7.35381 8.54657 -1.38821 0 255 255
7.37413 8.51593 -1.38699 0 255 255
7.39432 8.48524 -1.38577 0 255 255
7.43255 8.47819 -1.38821 0 255 255
7.45258 8.44735 -1.38699 0 255 255
7.4725 8.41647 -1.38577 0 255 255
7.4989 8.39296 -1.38577 0 255 255
7.5186 8.36198 -1.38455 0 255 255
7.55149 8.34568 -1.38577 0 255 255
7.57767 8.32191 -1.38577 0 255 255
7.60378 8.29806 -1.38577 0 255 255
7.62163 8.26817 -1.38455 0 255 255
7.64757 8.24418 -1.38455 0 255 255
7.66666 8.21286 -1.38333 0 255 255
7.69242 8.18874 -1.38333 0 255 255
7.72493 8.17174 -1.38455 0 255 255
7.75057 8.14743 -1.38455 0 255 255
7.77612 8.12304 -1.38455 0 255 255
7.79937 8.04552 -1.37966 0 255 255
7.07272 7.15966 -1.23913 0 255 255
7.2637 7.2637 -1.26479 0 255 255
6.58952 6.54824 -1.14381 0 255 255
6.56769 6.48567 -1.13648 0 255 255
7.13349 7.00028 -1.23057 0 255 255
7.21229 7.03327 -1.24035 0 255 255
6.41361 6.21739 -1.09982 0 255 255
6.54748 6.30738 -1.11937 0 255 255
6.81103 6.52014 -1.16092 0 255 255
6.76676 6.43714 -1.14992 0 255 255
6.09455 5.76131 -1.03261 0 255 255
6.21389 5.83727 -1.04972 0 255 255
6.47162 6.04122 -1.09004 0 255 255
6.22134 5.77112 -1.04483 0 255 255
6.31242 5.81881 -1.05705 0 255 255
6.74051 6.17438 -1.12548 0 255 255
6.81017 6.20113 -1.13403 0 255 255
6.72658 6.08647 -1.11693 0 255 255
7.31239 6.53343 -1.20736 0 255 255
7.47389 6.63563 -1.23057 0 255 255
7.4426 6.56615 -1.22202 0 255 255
7.42588 6.51002 -1.21591 0 255 255
7.49868 6.5323 -1.22446 0 255 255
6.81274 5.8993 -1.10959 0 255 255
7.38797 6.3569 -1.20002 0 255 255
7.41545 6.34011 -1.20124 0 255 255
6.82266 5.79627 -1.10226 0 255 255
7.70541 6.50467 -1.24157 0 255 255
7.56612 6.34648 -1.21591 0 255 255
6.89223 5.74442 -1.10471 0 255 255
7.13956 5.91266 -1.14137 0 255 255
2.85793 2.33752 -0.454591 0 255 255
2.88066 2.34105 -0.457035 0 255 255
6.99262 5.57414 -1.10104 0 255 255
7.65148 6.02112 -1.1988 0 255 255
7.45925 5.83199 -1.16581 0 255 255
7.39915 5.74765 -1.15359 0 255 255
7.99669 6.09405 -1.23791 0 255 255
8.09492 6.12881 -1.25013 0 255 255
7.93964 5.97209 -1.22324 0 255 255
7.90271 5.90553 -1.21469 0 255 255
7.84052 5.82288 -1.20247 0 255 255
8.14629 6.01035 -1.24646 0 255 255
8.19715 6.0082 -1.25135 0 255 255
8.0154 5.83636 -1.2208 0 255 255
7.89877 5.67584 -1.19758 0 255 255
8.12659 5.80093 -1.22935 0 255 255
8.22574 5.83277 -1.24157 0 255 255
8.16288 5.74975 -1.22935 0 255 255
8.17278 5.71839 -1.22813 0 255 255
7.99413 5.55814 -1.1988 0 255 255
8.04422 5.55555 -1.20369 0 255 255
8.12711 5.57517 -1.21346 0 255 255
8.15278 5.5552 -1.21469 0 255 255
8.14554 5.51287 -1.21102 0 255 255
8.19576 5.50941 -1.21591 0 255 255
4.35776 2.91067 -0.645226 0 255 255
8.32024 5.51959 -1.22935 0 255 255
8.33754 5.49342 -1.22935 0 255 255
8.41289 5.50525 -1.23791 0 255 255
4.40232 2.86108 -0.646448 0 255 255
8.30556 5.36078 -1.21713 0 255 255
8.41427 5.39357 -1.23057 0 255 255
4.08581 2.60094 -0.596345 0 255 255
4.11029 2.59942 -0.59879 0 255 255
4.12684 2.59177 -0.600012 0 255 255
4.16865 2.5998 -0.6049 0 255 255
4.16836 2.58147 -0.603678 0 255 255
4.89104 2.86268 -0.697773 0 255 255
4.10792 2.25182 -0.576793 0 255 255
4.08882 2.22467 -0.573127 0 255 255
4.17439 2.25426 -0.584125 0 255 255
4.15521 2.22707 -0.580459 0 255 255
4.17094 2.21866 -0.581681 0 255 255
4.16912 2.20092 -0.580459 0 255 255
4.1848 2.19241 -0.581681 0 255 255
4.20048 2.18383 -0.582903 0 255 255
4.22458 2.18046 -0.585347 0 255 255
5.48576 2.7879 -0.757652 0 255 255
5.37042 2.70809 -0.740544 0 255 255
5.48542 2.7445 -0.755208 0 255 255
5.48512 2.72284 -0.753986 0 255 255
5.49365 2.7056 -0.753986 0 255 255
5.4932 2.68396 -0.752764 0 255 255
5.49268 2.66236 -0.751542 0 255 255
5.49207 2.64079 -0.75032 0 255 255
5.49988 2.62449 -0.75032 0 255 255
5.49913 2.60295 -0.749098 0 255 255
5.50728 2.58566 -0.749098 0 255 255
5.50638 2.56416 -0.747876 0 255 255
4.88171 2.23605 -0.661112 0 255 255
4.44006 1.98427 -0.59879 0 255 255
4.44627 1.97031 -0.59879 0 255 255
4.48878 1.97231 -0.603678 0 255 255
4.50109 1.94406 -0.603678 0 255 255
4.48892 1.9221 -0.601234 0 255 255
4.65939 1.97779 -0.62323 0 255 255
4.72962 1.99009 -0.631784 0 255 255
4.82745 2.01343 -0.644004 0 255 255
4.83375 1.99825 -0.644004 0 255 255
4.83966 1.9839 -0.644004 0 255 255
4.83667 1.96495 -0.642782 0 255 255
4.84316 1.9489 -0.642782 0 255 255
4.84926 1.93368 -0.642782 0 255 255
4.85498 1.91928 -0.642782 0 255 255
4.86098 1.90402 -0.642782 0 255 255
4.87619 1.89233 -0.644004 0 255 255
4.88211 1.877 -0.644004 0 255 255
4.88799 1.86165 -0.644004 0 255 255
4.9031 1.84979 -0.645226 0 255 255
4.90888 1.83438 -0.645226 0 255 255
4.93324 1.82584 -0.64767 0 255 255
4.93863 1.81119 -0.64767 0 255 255
4.95363 1.79906 -0.648892 0 255 255
4.95926 1.78349 -0.648892 0 255 255
4.98353 1.77455 -0.651336 0 255 255
4.99844 1.76219 -0.652558 0 255 255
5.0227 1.75302 -0.655002 0 255 255
5.05632 1.74696 -0.658668 0 255 255
5.07118 1.73427 -0.659891 0 255 255
5.1048 1.72788 -0.663557 0 255 255
5.16667 1.73075 -0.670889 0 255 255
5.42614 1.79978 -0.703883 0 255 255
5.39404 1.77034 -0.698995 0 255 255
5.39014 1.75032 -0.697773 0 255 255
5.38616 1.73035 -0.696551 0 255 255
5.39187 1.71247 -0.696551 0 255 255
5.38775 1.69255 -0.695329 0 255 255
5.38327 1.67361 -0.694107 0 255 255
5.3885 1.65669 -0.694107 0 255 255
5.39368 1.63976 -0.694107 0 255 255
5.3893 1.61995 -0.692885 0 255 255
5.38485 1.60018 -0.691663 0 255 255
5.38985 1.58325 -0.691663 0 255 255
5.3948 1.56631 -0.691663 0 255 255
5.39015 1.54662 -0.690441 0 255 255
5.40427 1.53333 -0.691663 0 255 255
5.3995 1.51366 -0.690441 0 255 255
5.60037 1.53209 -0.714881 0 255 255
7.53739 2.01118 -0.960507 0 255 255
8.80819 2.29107 -1.12059 0 255 255
8.81534 2.26339 -1.12059 0 255 255
8.82241 2.23569 -1.12059 0 255 255
7.52953 1.88291 -0.955619 0 255 255
7.46796 1.8426 -0.947065 0 255 255
5.88253 1.43183 -0.745432 0 255 255
5.8677 1.40871 -0.742988 0 255 255
5.88175 1.39256 -0.74421 0 255 255
5.89577 1.37633 -0.745432 0 255 255
5.89015 1.3566 -0.74421 0 255 255
5.90406 1.34028 -0.745432 0 255 255
5.89856 1.31957 -0.74421 0 255 255
5.89298 1.29889 -0.742988 0 255 255
5.85824 1.27195 -0.7381 0 255 255
5.84279 1.24939 -0.735656 0 255 255
5.81166 1.2046 -0.730768 0 255 255
5.79575 1.18337 -0.728324 0 255 255
5.83837 1.17298 -0.733212 0 255 255
5.83228 1.15271 -0.73199 0 255 255
5.82614 1.13249 -0.730768 0 255 255
5.82966 1.11418 -0.730768 0 255 255
5.84289 1.09769 -0.73199 0 255 255
5.84631 1.07933 -0.73199 0 255 255
5.84967 1.06096 -0.73199 0 255 255
5.85298 1.04258 -0.73199 0 255 255
5.85622 1.02418 -0.73199 0 255 255
5.85941 1.00578 -0.73199 0 255 255
5.87233 0.989012 -0.733212 0 255 255
5.87541 0.97056 -0.733212 0 255 255
5.86863 0.950512 -0.73199 0 255 255
5.87159 0.932068 -0.73199 0 255 255
5.8941 0.916669 -0.734434 0 255 255
5.88698 0.897679 -0.733212 0 255 255
5.90941 0.882112 -0.735656 0 255 255
5.91215 0.863544 -0.735656 0 255 255
5.93448 0.847772 -0.7381 0 255 255
5.96661 0.833243 -0.741766 0 255 255
6.00853 0.81986 -0.746654 0 255 255
6.06027 0.807535 -0.752764 0 255 255
6.12183 0.796174 -0.760096 0 255 255
8.93045 1.13293 -1.10837 0 255 255
8.94381 1.10609 -1.10959 0 255 255
8.95691 1.08073 -1.11082 0 255 255
8.97012 1.05375 -1.11204 0 255 255
8.96352 1.02444 -1.11082 0 255 255
8.95683 0.995172 -1.10959 0 255 255
8.98952 0.970225 -1.11326 0 255 255
8.96291 0.938874 -1.10959 0 255 255
8.96581 0.910713 -1.10959 0 255 255
8.95875 0.881572 -1.10837 0 255 255
8.99112 0.856243 -1.11204 0 255 255
8.99376 0.827994 -1.11204 0 255 255
9.00621 0.800611 -1.11326 0 255 255
9.01857 0.773167 -1.11448 0 255 255
8.99128 0.742378 -1.11082 0 255 255
8.99576 0.685869 -1.11082 0 255 255
9.00777 0.658326 -1.11204 0 255 255
8.99979 0.630908 -1.11082 0 255 255
9.01163 0.603292 -1.11204 0 255 255
9.01348 0.574975 -1.11204 0 255 255
9.01524 0.546658 -1.11204 0 255 255
9.007 0.517765 -1.11082 0 255 255
9.00859 0.489468 -1.11082 0 255 255
8.99025 0.460147 -1.10837 0 255 255
8.12917 0.39047 -1.00206 0 255 255
7.64452 0.343125 -0.942177 0 255 255
7.32823 0.305864 -0.903072 0 255 255
7.2399 0.279393 -0.892074 0 255 255
6.7852 0.219159 -0.835861 0 255 255
6.80569 0.198422 -0.838305 0 255 255
6.87574 0.178848 -0.846859 0 255 255
6.8465 0.156563 -0.843193 0 255 255
6.42061 0.107587 -0.790647 0 255 255
6.78811 0.092416 -0.835861 0 255 255
6.79829 0.071195 -0.837083 0 255 255
6.79848 0.049835 -0.837083 0 255 255
6.7986 0.028478 -0.837083 0 255 255
6.79866 0.007118 -0.837083 0 255 255
6.78872 -0.014218 -0.835861 0 255 255
6.79857 -0.035598 -0.837083 0 255 255
6.79842 -0.056956 -0.837083 0 255 255
6.80813 -0.078428 -0.838305 0 255 255
6.79793 -0.09967 -0.837083 0 255 255
6.79758 -0.121026 -0.837083 0 255 255
6.80709 -0.142588 -0.838305 0 255 255
6.81653 -0.164212 -0.839527 0 255 255
6.8259 -0.185896 -0.840749 0 255 255
6.83521 -0.20764 -0.841971 0 255 255
6.8246 -0.22878 -0.840749 0 255 255
6.83377 -0.250583 -0.841971 0 255 255
6.83295 -0.272051 -0.841971 0 255 255
6.83211 -0.292323 -0.841971 0 255 255
6.84107 -0.314241 -0.843193 0 255 255
6.84005 -0.335731 -0.843193 0 255 255
6.85879 -0.358253 -0.845637 0 255 255
5.27205 -0.291984 -0.650114 0 255 255
5.28101 -0.309125 -0.651336 0 255 255
5.2503 -0.323881 -0.64767 0 255 255
5.26906 -0.341658 -0.650114 0 255 255
5.23826 -0.35619 -0.646448 0 255 255
5.21731 -0.371236 -0.644004 0 255 255
5.19632 -0.386154 -0.64156 0 255 255
5.19509 -0.402476 -0.64156 0 255 255
5.17401 -0.4172 -0.639116 0 255 255
5.15289 -0.431795 -0.636672 0 255 255
5.14162 -0.447121 -0.63545 0 255 255
5.13031 -0.462381 -0.634228 0 255 255
5.12883 -0.478496 -0.634228 0 255 255
5.10754 -0.4927 -0.631784 0 255 255
5.06655 -0.503923 -0.626896 0 255 255
5.03533 -0.516798 -0.62323 0 255 255
5.01394 -0.530525 -0.620786 0 255 255
4.98265 -0.543048 -0.61712 0 255 255
4.96119 -0.556486 -0.614676 0 255 255
4.95942 -0.57207 -0.614676 0 255 255
4.94774 -0.586479 -0.613454 0 255 255
4.94587 -0.60202 -0.613454 0 255 255
4.94396 -0.617555 -0.613454 0 255 255
4.95184 -0.634345 -0.614676 0 255 255
4.94982 -0.649898 -0.614676 0 255 255
4.94775 -0.665445 -0.614676 0 255 255
4.94564 -0.680986 -0.614676 0 255 255
4.9533 -0.697904 -0.615898 0 255 255
4.94126 -0.712047 -0.614676 0 255 255
4.92918 -0.72612 -0.613454 0 255 255
4.92688 -0.741602 -0.613454 0 255 255
4.92452 -0.757077 -0.613454 0 255 255
4.91245 -0.770147 -0.612232 0 255 255
4.91 -0.785576 -0.612232 0 255 255
4.90751 -0.800998 -0.612232 0 255 255
4.89518 -0.814781 -0.61101 0 255 255
4.8926 -0.830156 -0.61101 0 255 255
4.88019 -0.843831 -0.609788 0 255 255
4.87751 -0.859159 -0.609788 0 255 255
4.87479 -0.874478 -0.609788 0 255 255
4.86225 -0.888005 -0.608566 0 255 255
4.78831 -0.905626 -0.600012 0 255 255
4.86341 -0.935665 -0.609788 0 255 255
4.84097 -0.947128 -0.607344 0 255 255
4.86411 -0.983427 -0.61101 0 255 255
4.9096 -1.00869 -0.61712 0 255 255
4.94527 -1.03222 -0.622008 0 255 255
4.99055 -1.05804 -0.628118 0 255 255
5.02601 -1.08207 -0.633006 0 255 255
5.06138 -1.10633 -0.637894 0 255 255
5.08694 -1.12868 -0.64156 0 255 255
5.13178 -1.15556 -0.64767 0 255 255
5.17651 -1.18273 -0.65378 0 255 255
5.21144 -1.20795 -0.658668 0 255 255
5.26559 -1.23794 -0.666001 0 255 255
5.30995 -1.26599 -0.672111 0 255 255
5.38335 -1.30038 -0.681887 0 255 255
5.4425 -1.35092 -0.690441 0 255 255
5.43823 -1.36801 -0.690441 0 255 255
5.50123 -1.40225 -0.698995 0 255 255
5.54485 -1.43193 -0.705105 0 255 255
5.57873 -1.45939 -0.709993 0 255 255
5.61249 -1.48708 -0.714881 0 255 255
5.65572 -1.51756 -0.720991 0 255 255
5.69881 -1.54833 -0.727102 0 255 255
5.7322 -1.57676 -0.73199 0 255 255
5.79415 -1.6134 -0.740544 0 255 255
5.97055 -1.68275 -0.763762 0 255 255
5.97478 -1.70422 -0.764984 0 255 255
5.95987 -1.72023 -0.763762 0 255 255
5.97348 -1.74451 -0.766206 0 255 255
6.02508 -1.78014 -0.773538 0 255 255
6.06701 -1.81327 -0.779648 0 255 255
8.4649 -2.55893 -1.08882 0 255 255
8.51376 -2.60292 -1.09615 0 255 255
2.3659 -0.747782 -0.305505 0 255 255
2.40136 -0.767294 -0.310393 0 255 255
2.3706 -0.765683 -0.306727 0 255 255
2.37762 -0.776207 -0.307949 0 255 255
2.36574 -0.780563 -0.306727 0 255 255
2.36328 -0.787991 -0.306727 0 255 255
2.35139 -0.792243 -0.305505 0 255 255
2.34889 -0.799626 -0.305505 0 255 255
2.33712 -0.803365 -0.304283 0 255 255
2.33444 -0.811111 -0.304283 0 255 255
2.33188 -0.818441 -0.304283 0 255 255
2.31994 -0.822446 -0.303061 0 255 255
2.31735 -0.829731 -0.303061 0 255 255
2.31473 -0.837007 -0.303061 0 255 255
2.30291 -0.840468 -0.301839 0 255 255
2.30957 -0.851131 -0.303061 0 255 255
2.29759 -0.854921 -0.301839 0 255 255
2.29489 -0.862135 -0.301839 0 255 255
2.29217 -0.86934 -0.301839 0 255 255
2.28943 -0.876537 -0.301839 0 255 255
2.28651 -0.884124 -0.301839 0 255 255
2.28372 -0.891303 -0.301839 0 255 255
2.27183 -0.894439 -0.300617 0 255 255
2.26901 -0.901572 -0.300617 0 255 255
2.26617 -0.908696 -0.300617 0 255 255
2.2541 -0.912088 -0.299395 0 255 255
2.25122 -0.919165 -0.299395 0 255 255
2.23915 -0.922452 -0.298173 0 255 255
2.23624 -0.929482 -0.298173 0 255 255
2.23331 -0.936503 -0.298173 0 255 255
2.22121 -0.939647 -0.296951 0 255 255
