ply
format ascii 1.0
element vertex 1271
property float x
property float y
property float z
property uchar red
property uchar green
property uchar blue
end_header
7.26994 0.272929 -0.89574 0 255 255
6.75566 0.211124 -0.832195 0 255 255
6.81582 0.191574 -0.839527 0 255 255
6.85607 0.171152 -0.844415 0 255 255
6.8665 0.149827 -0.845637 0 255 255
6.75814 0.104985 -0.832195 0 255 255
6.79814 0.084246 -0.837083 0 255 255
6.79837 0.06289 -0.837083 0 255 255
6.80845 0.042779 -0.838305 0 255 255
6.80856 0.020202 -0.838305 0 255 255
6.80859 -0.001188 -0.838305 0 255 255
6.79862 -0.022545 -0.837083 0 255 255
6.79853 -0.042717 -0.837083 0 255 255
6.80828 -0.064168 -0.838305 0 255 255
6.80805 -0.085557 -0.838305 0 255 255
6.80773 -0.108133 -0.838305 0 255 255
6.80735 -0.129519 -0.838305 0 255 255
6.80691 -0.150905 -0.838305 0 255 255
6.81633 -0.17254 -0.839527 0 255 255
6.81575 -0.193953 -0.839527 0 255 255
6.82503 -0.215678 -0.840749 0 255 255
6.83424 -0.237463 -0.841971 0 255 255
6.83346 -0.258932 -0.841971 0 255 255
6.83261 -0.280398 -0.841971 0 255 255
6.84161 -0.3023 -0.843193 0 255 255
6.84063 -0.323792 -0.843193 0 255 255
6.84949 -0.345782 -0.844415 0 255 255
5.26173 -0.298782 -0.648892 0 255 255
5.28058 -0.316499 -0.651336 0 255 255
1.7826 -0.118088 -0.219963 0 255 255
1.77232 -0.123 -0.218741 0 255 255
1.76203 -0.127849 -0.217519 0 255 255
1.74182 -0.131886 -0.215075 0 255 255
1.73151 -0.136577 -0.213853 0 255 255
1.73107 -0.142016 -0.213853 0 255 255
1.73061 -0.147453 -0.213853 0 255 255
1.72026 -0.152016 -0.212631 0 255 255
1.77907 -0.162848 -0.219963 0 255 255
1.79831 -0.170307 -0.222408 0 255 255
1.77801 -0.174022 -0.219963 0 255 255
1.77746 -0.179607 -0.219963 0 255 255
1.76701 -0.184162 -0.218741 0 255 255
1.76643 -0.189712 -0.218741 0 255 255
1.76582 -0.19526 -0.218741 0 255 255
1.75534 -0.199685 -0.217519 0 255 255
1.73499 -0.202893 -0.215075 0 255 255
1.75405 -0.21071 -0.217519 0 255 255
1.73368 -0.21379 -0.215075 0 255 255
1.72315 -0.21799 -0.213853 0 255 255
1.7323 -0.224679 -0.215075 0 255 255
1.70207 -0.226198 -0.211409 0 255 255
1.66201 -0.22619 -0.206521 0 255 255
1.67112 -0.23278 -0.207743 0 255 255
1.65073 -0.235228 -0.205299 0 255 255
1.63034 -0.237551 -0.202855 0 255 255
1.62955 -0.242956 -0.202855 0 255 255
1.62878 -0.248074 -0.202855 0 255 255
1.62799 -0.25319 -0.202855 0 255 255
1.61738 -0.256747 -0.201633 0 255 255
1.61657 -0.261827 -0.201633 0 255 255
1.62558 -0.268238 -0.202855 0 255 255
1.61489 -0.271979 -0.201633 0 255 255
1.61403 -0.277051 -0.201633 0 255 255
1.61315 -0.28212 -0.201633 0 255 255
1.60248 -0.285446 -0.200411 0 255 255
1.59181 -0.288708 -0.199189 0 255 255
1.58114 -0.291905 -0.197967 0 255 255
1.59972 -0.300536 -0.200411 0 255 255
1.63777 -0.313013 -0.205299 0 255 255
1.63677 -0.318157 -0.205299 0 255 255
1.65524 -0.327146 -0.207743 0 255 255
1.67367 -0.336254 -0.210187 0 255 255
1.65315 -0.33754 -0.207743 0 255 255
1.64236 -0.340715 -0.206521 0 255 255
1.62186 -0.34178 -0.204077 0 255 255
1.6499 -0.353105 -0.207743 0 255 255
1.62938 -0.354071 -0.205299 0 255 255
1.64765 -0.363464 -0.207743 0 255 255
1.60775 -0.359965 -0.202855 0 255 255
1.60662 -0.365014 -0.202855 0 255 255
1.57645 -0.363372 -0.199189 0 255 255
1.61396 -0.377361 -0.204077 0 255 255
1.59345 -0.37785 -0.201633 0 255 255
1.6019 -0.385174 -0.202855 0 255 255
1.54283 -0.376101 -0.195523 0 255 255
1.5223 -0.37645 -0.193079 0 255 255
1.52111 -0.38123 -0.193079 0 255 255
1.51991 -0.386007 -0.193079 0 255 255
1.49946 -0.385834 -0.190635 0 255 255
1.48864 -0.388039 -0.189413 0 255 255
1.49701 -0.395247 -0.190635 0 255 255
1.48617 -0.397385 -0.189413 0 255 255
1.4945 -0.404646 -0.190635 0 255 255
1.49322 -0.409339 -0.190635 0 255 255
1.48236 -0.411374 -0.189413 0 255 255
1.49062 -0.418713 -0.190635 0 255 255
1.47975 -0.42068 -0.189413 0 255 255
1.47842 -0.425326 -0.189413 0 255 255
1.47707 -0.429969 -0.189413 0 255 255
1.4662 -0.431803 -0.188191 0 255 255
1.46483 -0.436407 -0.188191 0 255 255
1.46345 -0.441007 -0.188191 0 255 255
1.46206 -0.445602 -0.188191 0 255 255
1.46065 -0.450193 -0.188191 0 255 255
1.44976 -0.451827 -0.186969 0 255 255
1.44833 -0.456379 -0.186969 0 255 255
1.4658 -0.466952 -0.189413 0 255 255
1.46425 -0.47181 -0.189413 0 255 255
1.46276 -0.476408 -0.189413 0 255 255
1.45183 -0.477898 -0.188191 0 255 255
1.45974 -0.485589 -0.189413 0 255 255
1.42998 -0.480685 -0.185747 0 255 255
1.43786 -0.488367 -0.186969 0 255 255
1.42693 -0.489661 -0.185747 0 255 255
1.42538 -0.494141 -0.185747 0 255 255
1.41446 -0.495336 -0.184525 0 255 255
1.41289 -0.499777 -0.184525 0 255 255
1.41132 -0.504214 -0.184525 0 255 255
1.40973 -0.508645 -0.184525 0 255 255
1.3988 -0.509673 -0.183303 0 255 255
1.39719 -0.514065 -0.183303 0 255 255
1.39557 -0.518452 -0.183303 0 255 255
1.38464 -0.519348 -0.182081 0 255 255
1.40156 -0.530725 -0.184525 0 255 255
1.40916 -0.53867 -0.185747 0 255 255
1.39811 -0.539765 -0.184525 0 255 255
1.40565 -0.547758 -0.185747 0 255 255
1.40392 -0.552172 -0.185747 0 255 255
1.39296 -0.552918 -0.184525 0 255 255
1.39121 -0.557291 -0.184525 0 255 255
1.39866 -0.565379 -0.185747 0 255 255
1.39688 -0.56977 -0.185747 0 255 255
1.39508 -0.574155 -0.185747 0 255 255
1.39327 -0.578535 -0.185747 0 255 255
1.38229 -0.579075 -0.184525 0 255 255
1.38961 -0.587278 -0.185747 0 255 255
1.40601 -0.599425 -0.188191 0 255 255
1.395 -0.599919 -0.186969 0 255 255
1.3749 -0.596399 -0.184525 0 255 255
1.38212 -0.604694 -0.185747 0 255 255
1.38021 -0.609033 -0.185747 0 255 255
1.36922 -0.60933 -0.184525 0 255 255
1.37625 -0.617933 -0.185747 0 255 255
1.36526 -0.61816 -0.184525 0 255 255
1.37234 -0.626568 -0.185747 0 255 255
1.32528 -0.610123 -0.179637 0 255 255
1.31436 -0.610105 -0.178415 0 255 255
1.32142 -0.618438 -0.179637 0 255 255
1.3105 -0.618351 -0.178415 0 255 255
1.31751 -0.626729 -0.179637 0 255 255
1.29764 -0.622282 -0.177193 0 255 255
1.29568 -0.626355 -0.177193 0 255 255
1.2937 -0.630423 -0.177193 0 255 255
1.29172 -0.634484 -0.177193 0 255 255
1.28082 -0.634135 -0.175971 0 255 255
1.26994 -0.633724 -0.174749 0 255 255
1.26795 -0.637711 -0.174749 0 255 255
1.26594 -0.641691 -0.174749 0 255 255
1.25508 -0.64115 -0.173527 0 255 255
1.25294 -0.645308 -0.173527 0 255 255
1.25972 -0.653813 -0.174749 0 255 255
1.24886 -0.653168 -0.173527 0 255 255
1.25559 -0.661715 -0.174749 0 255 255
1.2535 -0.665657 -0.174749 0 255 255
1.2514 -0.669591 -0.174749 0 255 255
1.24056 -0.668809 -0.173527 0 255 255
1.24717 -0.677441 -0.174749 0 255 255
1.24504 -0.681355 -0.174749 0 255 255
1.24289 -0.685264 -0.174749 0 255 255
1.26676 -0.703623 -0.178415 0 255 255
1.29053 -0.722139 -0.182081 0 255 255
1.31419 -0.740811 -0.185747 0 255 255
1.27733 -0.725332 -0.180859 0 255 255
1.27505 -0.729341 -0.180859 0 255 255
1.26415 -0.728388 -0.179637 0 255 255
1.25315 -0.727593 -0.178415 0 255 255
1.25942 -0.736537 -0.179637 0 255 255
1.2571 -0.74049 -0.179637 0 255 255
1.2377 -0.734307 -0.177193 0 255 255
1.23538 -0.738192 -0.177193 0 255 255
1.23306 -0.742069 -0.177193 0 255 255
1.23921 -0.751084 -0.178415 0 255 255
1.22837 -0.749802 -0.177193 0 255 255
1.22601 -0.753657 -0.177193 0 255 255
1.24051 -0.767954 -0.179637 0 255 255
1.22967 -0.766596 -0.178415 0 255 255
1.21885 -0.765179 -0.177193 0 255 255
1.23309 -0.779826 -0.179637 0 255 255
1.21389 -0.773033 -0.177193 0 255 255
1.20296 -0.771696 -0.175971 0 255 255
1.20901 -0.780645 -0.177193 0 255 255
1.17326 -0.7628 -0.172305 0 255 255
1.15425 -0.75561 -0.169861 0 255 255
1.16016 -0.764695 -0.171083 0 255 255
1.14948 -0.762847 -0.169861 0 255 255
1.14708 -0.766455 -0.169861 0 255 255
1.1282 -0.758975 -0.167417 0 255 255
1.13402 -0.768081 -0.168639 0 255 255
1.13161 -0.77164 -0.168639 0 255 255
1.12099 -0.769574 -0.167417 0 255 255
1.12674 -0.778735 -0.168639 0 255 255
1.14872 -0.799277 -0.172305 0 255 255
4.00694 -2.82553 -0.603678 0 255 255
4.13394 -2.95525 -0.625674 0 255 255
4.09118 -2.9637 -0.622008 0 255 255
4.08986 -2.98238 -0.62323 0 255 255
4.00047 -2.93649 -0.61101 0 255 255
4.02315 -2.97263 -0.615898 0 255 255
3.99786 -2.97341 -0.613454 0 255 255
3.97261 -2.97406 -0.61101 0 255 255
3.95532 -2.98055 -0.609788 0 255 255
3.9217 -2.97565 -0.606122 0 255 255
3.94388 -3.01205 -0.61101 0 255 255
3.92653 -3.01838 -0.609788 0 255 255
3.92488 -3.03678 -0.61101 0 255 255
3.90749 -3.04299 -0.609788 0 255 255
3.8901 -3.04913 -0.608566 0 255 255
3.8805 -3.06134 -0.608566 0 255 255
3.83977 -3.04883 -0.603678 0 255 255
3.85343 -3.07946 -0.607344 0 255 255
3.78001 -3.0599 -0.59879 0 255 255
3.81655 -3.10937 -0.606122 0 255 255
3.80676 -3.12135 -0.606122 0 255 255
3.78162 -3.12066 -0.603678 0 255 255
3.72332 -3.11318 -0.597567 0 255 255
3.75149 -3.15681 -0.603678 0 255 255
3.71126 -3.14293 -0.59879 0 255 255
3.69381 -3.14813 -0.597567 0 255 255
3.69144 -3.16618 -0.59879 0 255 255
3.67396 -3.17128 -0.597567 0 255 255
3.66398 -3.18281 -0.597567 0 255 255
3.63902 -3.18124 -0.595123 0 255 255
3.65136 -3.21232 -0.59879 0 255 255
3.62639 -3.21062 -0.596345 0 255 255
3.60888 -3.21539 -0.595123 0 255 255
3.59876 -3.22671 -0.595123 0 255 255
3.56315 -3.23654 -0.592679 0 255 255
3.55297 -3.24772 -0.592679 0 255 255
3.53544 -3.25214 -0.591457 0 255 255
3.53249 -3.26998 -0.592679 0 255 255
3.52946 -3.28782 -0.593901 0 255 255
3.50463 -3.28532 -0.591457 0 255 255
3.50151 -3.30312 -0.592679 0 255 255
3.47672 -3.30044 -0.590235 0 255 255
3.49504 -3.33877 -0.595123 0 255 255
3.48395 -3.35034 -0.595123 0 255 255
3.43775 -3.32676 -0.589013 0 255 255
3.43439 -3.34447 -0.590235 0 255 255
3.43096 -3.36219 -0.591457 0 255 255
3.40624 -3.35901 -0.589013 0 255 255
3.40272 -3.37669 -0.590235 0 255 255
3.39209 -3.38736 -0.590235 0 255 255
3.38844 -3.40504 -0.591457 0 255 255
3.37772 -3.41566 -0.591457 0 255 255
3.37393 -3.43334 -0.592679 0 255 255
3.37006 -3.45102 -0.593901 0 255 255
3.35169 -3.45505 -0.592679 0 255 255
3.34082 -3.46557 -0.592679 0 255 255
3.34365 -3.49038 -0.595123 0 255 255
3.33951 -3.50805 -0.596345 0 255 255
3.32165 -3.51132 -0.595123 0 255 255
3.30381 -3.51451 -0.593901 0 255 255
3.29952 -3.53212 -0.595123 0 255 255
3.28166 -3.5352 -0.593901 0 255 255
3.26381 -3.53819 -0.592679 0 255 255
3.26609 -3.56306 -0.595123 0 255 255
3.26824 -3.58798 -0.597567 0 255 255
3.26299 -3.60616 -0.59879 0 255 255
3.24501 -3.60901 -0.597567 0 255 255
3.21568 -3.62191 -0.596345 0 255 255
3.23055 -3.66176 -0.601234 0 255 255
3.21249 -3.66443 -0.600012 0 255 255
3.22052 -3.69695 -0.603678 0 255 255
3.20888 -3.70705 -0.603678 0 255 255
3.17263 -3.71205 -0.601234 0 255 255
3.16031 -3.72255 -0.601234 0 255 255
3.15499 -3.74005 -0.602456 0 255 255
3.09967 -3.72166 -0.596345 0 255 255
3.12593 -3.77726 -0.603678 0 255 255
2.87125 -3.53686 -0.560907 0 255 255
3.07242 -3.83364 -0.6049 0 255 255
3.06655 -3.85104 -0.606122 0 255 255
3.09138 -3.90736 -0.613454 0 255 255
3.07296 -3.90925 -0.612232 0 255 255
3.04765 -3.92901 -0.612232 0 255 255
3.05347 -3.96215 -0.615898 0 255 255
3.04704 -3.9796 -0.61712 0 255 255
3.03452 -3.98915 -0.61712 0 255 255
3.02796 -4.00659 -0.618342 0 255 255
3.02575 -4.05788 -0.62323 0 255 255
3.03071 -4.09129 -0.626896 0 255 255
3.01785 -4.10079 -0.626896 0 255 255
3.00495 -4.11025 -0.626896 0 255 255
2.98619 -4.11164 -0.625674 0 255 255
2.97326 -4.12101 -0.625674 0 255 255
2.98342 -4.16259 -0.630562 0 255 255
3.72517 -5.26709 -0.794313 0 255 255
3.7086 -5.27876 -0.794313 0 255 255
3.69768 -5.29853 -0.795535 0 255 255
3.67536 -5.30196 -0.794313 0 255 255
3.65776 -5.31412 -0.794313 0 255 255
3.64105 -5.32558 -0.794313 0 255 255
3.61872 -5.32879 -0.793091 0 255 255
3.60751 -5.34836 -0.794313 0 255 255
3.59069 -5.35966 -0.794313 0 255 255
3.57933 -5.37918 -0.795535 0 255 255
3.56242 -5.3904 -0.795535 0 255 255
3.54002 -5.39327 -0.794313 0 255 255
2.88813 -4.43208 -0.651336 0 255 255
2.88498 -4.4578 -0.65378 0 255 255
2.87096 -4.46684 -0.65378 0 255 255
3.4486 -5.44043 -0.793091 0 255 255
3.4315 -5.45123 -0.793091 0 255 255
3.41866 -5.471 -0.794313 0 255 255
3.39099 -5.46485 -0.791869 0 255 255
3.37901 -5.48392 -0.793091 0 255 255
2.37052 -3.90188 -0.562129 0 255 255
2.35824 -3.90931 -0.562129 0 255 255
2.775 -4.6662 -0.668445 0 255 255
2.78051 -4.70908 -0.673333 0 255 255
3.23015 -5.54995 -0.790647 0 255 255
3.21766 -5.56866 -0.791869 0 255 255
3.19027 -5.56152 -0.789425 0 255 255
3.16787 -5.5629 -0.788203 0 255 255
3.15917 -5.59065 -0.790647 0 255 255
2.68943 -4.82997 -0.680665 0 255 255
2.71745 -4.91657 -0.691663 0 255 255
2.70199 -4.92508 -0.691663 0 255 255
3.0438 -5.63174 -0.788203 0 255 255
2.9672 -5.66127 -0.786981 0 255 255
2.94939 -5.67057 -0.786981 0 255 255
2.93157 -5.6798 -0.786981 0 255 255
2.90918 -5.68015 -0.785758 0 255 255
2.88683 -5.68042 -0.784536 0 255 255
2.87691 -5.70768 -0.786981 0 255 255
2.85009 -5.69894 -0.784536 0 255 255
2.82776 -5.69898 -0.783314 0 255 255
2.80545 -5.69893 -0.782092 0 255 255
2.79189 -5.71663 -0.783314 0 255 255
2.77392 -5.72537 -0.783314 0 255 255
2.75162 -5.72511 -0.782092 0 255 255
2.73789 -5.74269 -0.783314 0 255 255
2.71559 -5.74229 -0.782092 0 255 255
2.69754 -5.75079 -0.782092 0 255 255
2.67527 -5.75024 -0.78087 0 255 255
2.53564 -5.49771 -0.745432 0 255 255
2.52249 -5.51468 -0.746654 0 255 255
2.50515 -5.52257 -0.746654 0 255 255
2.46503 -5.57317 -0.75032 0 255 255
1.58672 -3.74717 -0.501028 0 255 255
1.55573 -3.70638 -0.494918 0 255 255
1.52502 -3.66543 -0.488808 0 255 255
1.50151 -3.64294 -0.485142 0 255 255
1.4863 -3.63845 -0.48392 0 255 255
1.4755 -3.64284 -0.48392 0 255 255
1.45602 -3.62929 -0.481476 0 255 255
1.44828 -3.64307 -0.482698 0 255 255
1.43319 -3.63837 -0.481476 0 255 255
1.41815 -3.63361 -0.480254 0 255 255
1.4103 -3.6473 -0.481476 0 255 255
1.39529 -3.64245 -0.480254 0 255 255
1.38384 -3.64681 -0.480254 0 255 255
1.36539 -3.63256 -0.47781 0 255 255
1.34988 -3.62777 -0.476588 0 255 255
1.33847 -3.63199 -0.476588 0 255 255
1.32705 -3.63618 -0.476588 0 255 255
1.30888 -3.62166 -0.474144 0 255 255
1.3002 -3.63533 -0.475366 0 255 255
1.28878 -3.63939 -0.475366 0 255 255
1.27405 -3.63406 -0.474144 0 255 255
1.25938 -3.62867 -0.472922 0 255 255
1.24797 -3.6326 -0.472922 0 255 255
1.23655 -3.63651 -0.472922 0 255 255
1.22829 -3.64978 -0.474144 0 255 255
1.21368 -3.64421 -0.472922 0 255 255
1.20222 -3.648 -0.472922 0 255 255
1.19012 -3.65197 -0.472922 0 255 255
1.1756 -3.64624 -0.4717 0 255 255
1.16477 -3.64971 -0.4717 0 255 255
1.15266 -3.65355 -0.4717 0 255 255
1.14118 -3.65716 -0.4717 0 255 255
1.13261 -3.67021 -0.472922 0 255 255
1.11818 -3.66426 -0.4717 0 255 255
1.10666 -3.66775 -0.4717 0 255 255
1.09513 -3.67121 -0.4717 0 255 255
1.08295 -3.67482 -0.4717 0 255 255
1.06863 -3.66868 -0.470477 0 255 255
1.0571 -3.67201 -0.470477 0 255 255
1.04827 -3.68486 -0.4717 0 255 255
1.03669 -3.68814 -0.4717 0 255 255
1.0251 -3.69138 -0.4717 0 255 255
1.01023 -3.68518 -0.470477 0 255 255
1.00124 -3.69792 -0.4717 0 255 255
0.99218 -3.71064 -0.472922 0 255 255
0.985585 -3.73293 -0.475366 0 255 255
0.968846 -3.7168 -0.472922 0 255 255
0.954691 -3.71021 -0.4717 0 255 255
0.947917 -3.73243 -0.474144 0 255 255
0.936186 -3.73539 -0.474144 0 255 255
0.931594 -3.76722 -0.47781 0 255 255
0.919097 -3.77029 -0.47781 0 255 255
0.911888 -3.79245 -0.480254 0 255 255
0.905215 -3.81446 -0.482698 0 255 255
0.894821 -3.8271 -0.48392 0 255 255
0.885022 -3.83957 -0.485142 0 255 255
0.877353 -3.86169 -0.487586 0 255 255
0.869554 -3.88379 -0.49003 0 255 255
0.861624 -3.90589 -0.492474 0 255 255
0.851457 -3.91828 -0.493696 0 255 255
0.84122 -3.93064 -0.494918 0 255 255
0.837054 -3.97211 -0.499806 0 255 255
0.835964 -4.03317 -0.507138 0 255 255
0.845111 -4.14275 -0.52058 0 255 255
0.847718 -4.22323 -0.530356 0 255 255
0.853674 -4.32325 -0.542577 0 255 255
0.8609 -4.43308 -0.556019 0 255 255
1.23765 -6.59419 -0.826085 0 255 255
1.22412 -6.63709 -0.830973 0 255 255
1.2015 -6.63114 -0.829751 0 255 255
1.1824 -6.64465 -0.830973 0 255 255
1.16036 -6.64854 -0.830973 0 255 255
1.13779 -6.64237 -0.829751 0 255 255
1.11575 -6.6461 -0.829751 0 255 255
1.09603 -6.64939 -0.829751 0 255 255
1.07513 -6.6528 -0.829751 0 255 255
1.05734 -6.67575 -0.832195 0 255 255
1.03823 -6.69883 -0.834639 0 255 255
1.01569 -6.69225 -0.833417 0 255 255
0.988829 -6.65614 -0.828529 0 255 255
0.980762 -6.74761 -0.839527 0 255 255
0.965146 -6.78996 -0.844415 0 255 255
0.971941 -7.16979 -0.890852 0 255 255
0.958529 -7.24168 -0.899406 0 255 255
0.290277 -2.30425 -0.285953 0 255 255
0.281828 -2.2953 -0.284731 0 255 255
0.957562 -9.25034 -1.14503 0 255 255
0.928496 -9.25331 -1.14503 0 255 255
0.899421 -9.25618 -1.14503 0 255 255
0.870338 -9.25896 -1.14503 0 255 255
0.800845 -8.81685 -1.09004 0 255 255
0.220165 -2.61095 -0.322613 0 255 255
0.274762 -3.52262 -0.435039 0 255 255
0.271101 -3.62244 -0.447259 0 255 255
0.171561 -2.62454 -0.323835 0 255 255
0.163932 -2.63497 -0.325057 0 255 255
0.489339 -8.77997 -1.08271 0 255 255
0.462275 -8.79138 -1.08393 0 255 255
0.458175 -9.26861 -1.14259 0 255 255
0.292279 -7.30892 -0.900628 0 255 255
0.254699 -6.91307 -0.851748 0 255 255
0.230775 -6.88412 -0.848082 0 255 255
0.209449 -6.89473 -0.849303 0 255 255
0.028371 -1.04174 -0.128312 0 255 255
0.02462 -1.02198 -0.125868 0 255 255
0.020578 -0.982365 -0.12098 0 255 255
0.017138 -0.962578 -0.118536 0 255 255
0.014259 -0.972551 -0.119758 0 255 255
0.010696 -0.942819 -0.116092 0 255 255
0.007897 -0.962698 -0.118536 0 255 255
0.004823 -0.952793 -0.117314 0 255 255
0.001848 -0.962728 -0.118536 0 255 255
-0.001176 -0.962729 -0.118536 0 255 255
-0.004369 -0.96272 -0.118536 0 255 255
-0.007393 -0.962702 -0.118536 0 255 255
-0.010418 -0.962674 -0.118536 0 255 255
-0.013442 -0.962636 -0.118536 0 255 255
-0.016296 -0.952666 -0.117314 0 255 255
-0.019289 -0.95261 -0.117314 0 255 255
-0.022514 -0.962467 -0.118536 0 255 255
-0.025274 -0.95247 -0.117314 0 255 255
-0.028266 -0.952386 -0.117314 0 255 255
-0.031258 -0.952292 -0.117314 0 255 255
-0.034606 -0.962108 -0.118536 0 255 255
-0.037629 -0.961994 -0.118536 0 255 255
-0.041239 -0.97178 -0.119758 0 255 255
-0.043388 -0.951817 -0.117314 0 255 255
-0.046861 -0.961589 -0.118536 0 255 255
-0.049882 -0.961437 -0.118536 0 255 255
-0.052902 -0.961275 -0.118536 0 255 255
-0.056498 -0.971013 -0.119758 0 255 255
-0.059549 -0.970831 -0.119758 0 255 255
-0.062127 -0.960723 -0.118536 0 255 255
-0.065817 -0.970426 -0.119758 0 255 255
-0.068865 -0.970214 -0.119758 0 255 255
-0.071913 -0.969993 -0.119758 0 255 255
-0.074195 -0.959867 -0.118536 0 255 255
-0.07721 -0.959629 -0.118536 0 255 255
-0.080224 -0.959382 -0.118536 0 255 255
-0.083405 -0.95911 -0.118536 0 255 255
-0.086418 -0.958844 -0.118536 0 255 255
-0.08943 -0.958567 -0.118536 0 255 255
-0.093394 -0.968161 -0.119758 0 255 255
-0.096435 -0.967863 -0.119758 0 255 255
-0.099475 -0.967555 -0.119758 0 255 255
-0.102683 -0.96722 -0.119758 0 255 255
-0.105721 -0.966892 -0.119758 0 255 255
-0.110978 -0.986281 -0.122202 0 255 255
-0.111794 -0.966209 -0.119758 0 255 255
-0.116001 -0.975709 -0.12098 0 255 255
-0.11666 -0.955636 -0.118536 0 255 255
-0.123363 -0.984809 -0.122202 0 255 255
-0.122662 -0.954884 -0.118536 0 255 255
-0.128422 -0.974152 -0.12098 0 255 255
-0.128826 -0.954072 -0.118536 0 255 255
-0.13335 -0.963471 -0.119758 0 255 255
-0.084361 -1.00253 -0.088974 0 255 255
-0.08751 -1.00226 -0.088974 0 255 255
-0.090658 -1.00198 -0.088974 0 255 255
-0.093806 -1.00169 -0.088974 0 255 255
-0.096952 -1.00139 -0.088974 0 255 255
-0.101089 -1.01099 -0.089855 0 255 255
-0.103417 -1.00074 -0.088974 0 255 255
-0.10656 -1.00041 -0.088974 0 255 255
-0.109703 -1.00007 -0.088974 0 255 255
-0.111727 -0.989827 -0.088093 0 255 255
-0.115984 -0.999365 -0.088974 0 255 255
-0.119123 -0.998996 -0.088974 0 255 255
-0.121223 -0.988709 -0.088093 0 255 255
-0.125572 -0.998206 -0.088974 0 255 255
-0.128707 -0.997807 -0.088974 0 255 255
-0.133147 -1.00727 -0.089855 0 255 255
-0.134974 -0.996978 -0.088974 0 255 255
-0.138105 -0.996549 -0.088974 0 255 255
-0.142634 -1.00597 -0.089855 0 255 255
-0.147223 -1.01538 -0.090736 0 255 255
-0.144571 -0.975496 -0.087212 0 255 255
-0.152108 -1.00458 -0.089855 0 255 255
-0.153741 -0.994257 -0.088974 0 255 255
-0.158417 -1.00361 -0.089855 0 255 255
-0.160159 -0.993244 -0.088974 0 255 255
-0.163278 -0.992736 -0.088974 0 255 255
-0.168044 -1.00204 -0.089855 0 255 255
-0.171191 -1.00151 -0.089855 0 255 255
-0.174337 -1.00097 -0.089855 0 255 255
-0.17922 -1.01022 -0.090736 0 255 255
-0.179024 -0.990017 -0.088974 0 255 255
-0.183937 -0.999246 -0.089855 0 255 255
-0.188909 -1.00845 -0.090736 0 255 255
-0.192077 -1.00786 -0.090736 0 255 255
-0.193346 -0.997468 -0.089855 0 255 255
-0.198405 -1.00663 -0.090736 0 255 255
-0.19961 -0.996234 -0.089855 0 255 255
-0.202739 -0.995602 -0.089855 0 255 255
-0.205865 -0.99496 -0.089855 0 255 255
-0.20899 -0.994308 -0.089855 0 255 255
-0.212286 -0.99361 -0.089855 0 255 255
-0.217518 -1.00267 -0.090736 0 255 255
-0.220667 -1.00198 -0.090736 0 255 255
-0.219468 -0.981844 -0.088974 0 255 255
-0.226958 -1.00058 -0.090736 0 255 255
-0.230101 -0.99986 -0.090736 0 255 255
-0.235505 -1.00883 -0.091617 0 255 255
-0.234084 -0.988702 -0.089855 0 255 255
-0.244342 -1.01698 -0.092497 0 255 255
-0.247536 -1.0162 -0.092497 0 255 255
-0.243564 -0.986409 -0.089855 0 255 255
-0.251498 -1.00496 -0.091617 0 255 255
-0.252205 -0.994515 -0.090736 0 255 255
-0.257807 -1.00337 -0.091617 0 255 255
-0.263467 -1.01219 -0.092497 0 255 255
-0.266646 -1.01136 -0.092497 0 255 255
-0.267427 -1.00084 -0.091617 0 255 255
-0.27057 -0.999999 -0.091617 0 255 255
-0.27371 -0.999144 -0.091617 0 255 255
-0.279509 -1.00788 -0.092497 0 255 255
-0.282674 -1.00699 -0.092497 0 255 255
-0.283114 -0.99652 -0.091617 0 255 255
-0.286243 -0.995626 -0.091617 0 255 255
-0.292152 -1.00429 -0.092497 0 255 255
-0.295306 -1.00336 -0.092497 0 255 255
-0.298457 -1.00243 -0.092497 0 255 255
-0.298905 -0.991898 -0.091617 0 255 255
-0.307828 -1.01001 -0.093378 0 255 255
-0.308065 -0.99952 -0.092497 0 255 255
-0.314168 -1.00806 -0.093378 0 255 255
-0.311346 -0.988064 -0.091617 0 255 255
-0.320495 -1.00606 -0.093378 0 255 255
-0.320775 -0.995514 -0.092497 0 255 255
-0.323901 -0.994501 -0.092497 0 255 255
-0.336367 -1.02186 -0.09514 0 255 255
-0.336431 -1.01135 -0.094259 0 255 255
-0.339783 -1.01023 -0.094259 0 255 255
-0.346161 -1.01859 -0.09514 0 255 255
-0.342889 -0.998653 -0.093378 0 255 255
-0.349289 -1.00698 -0.094259 0 255 255
-0.352451 -1.00588 -0.094259 0 255 255
-0.355609 -1.00477 -0.094259 0 255 255
-0.362117 -1.01303 -0.09514 0 255 255
-0.36868 -1.02125 -0.096021 0 255 255
-0.368475 -1.01073 -0.09514 0 255 255
-0.37509 -1.01892 -0.096021 0 255 255
-0.374994 -1.00833 -0.09514 0 255 255
-0.37816 -1.00715 -0.09514 0 255 255
-0.384853 -1.01527 -0.096021 0 255 255
-0.395161 -1.03266 -0.097783 0 255 255
-0.387635 -1.00354 -0.09514 0 255 255
-0.401641 -1.03016 -0.097783 0 255 255
-0.393933 -1.00108 -0.09514 0 255 255
-0.411783 -1.03687 -0.098664 0 255 255
-0.407627 -1.01708 -0.096902 0 255 255
-0.422024 -1.0435 -0.099545 0 255 255
-0.406655 -0.995982 -0.09514 0 255 255
-0.428754 -1.04075 -0.099545 0 255 255
-0.416728 -1.0026 -0.096021 0 255 255
-0.431432 -1.02885 -0.098664 0 255 255
-0.42302 -0.999967 -0.096021 0 255 255
-0.437888 -1.02612 -0.098664 0 255 255
-0.437171 -1.01559 -0.097783 0 255 255
-0.448294 -1.03248 -0.099545 0 255 255
-0.451716 -1.03099 -0.099545 0 255 255
-0.454952 -1.02957 -0.099545 0 255 255
-0.458184 -1.02813 -0.099545 0 255 255
-0.453246 -1.00852 -0.097783 0 255 255
-0.464635 -1.02523 -0.099545 0 255 255
-0.467854 -1.02377 -0.099545 0 255 255
-0.475236 -1.03134 -0.100426 0 255 255
-0.478474 -1.02984 -0.100426 0 255 255
-0.481707 -1.02833 -0.100426 0 255 255
-0.484936 -1.02682 -0.100426 0 255 255
-0.492622 -1.0342 -0.101307 0 255 255
-0.495868 -1.03264 -0.101307 0 255 255
-0.49911 -1.03108 -0.101307 0 255 255
-0.506715 -1.03846 -0.102188 0 255 255
-0.509975 -1.03686 -0.102188 0 255 255
-0.51323 -1.03525 -0.102188 0 255 255
-0.51666 -1.03355 -0.102188 0 255 255
-0.519904 -1.03192 -0.102188 0 255 255
-0.523143 -1.03028 -0.102188 0 255 255
-0.535453 -1.04637 -0.10395 0 255 255
-0.538738 -1.04468 -0.10395 0 255 255
-0.537424 -1.03414 -0.103069 0 255 255
-0.54067 -1.03245 -0.103069 0 255 255
-0.54856 -1.03956 -0.10395 0 255 255
-0.556499 -1.04662 -0.10483 0 255 255
-0.559784 -1.04487 -0.10483 0 255 255
-0.563064 -1.04311 -0.10483 0 255 255
-0.566338 -1.04133 -0.10483 0 255 255
-0.574577 -1.04818 -0.105711 0 255 255
-0.582682 -1.05509 -0.106592 0 255 255
-0.585994 -1.05326 -0.106592 0 255 255
-0.594171 -1.0601 -0.107473 0 255 255
-0.597498 -1.05823 -0.107473 0 255 255
-0.600819 -1.05634 -0.107473 0 255 255
-0.179417 -0.275435 -0.029071 0 255 255
-0.169355 -0.258211 -0.027309 0 255 255
-0.170166 -0.257678 -0.027309 0 255 255
-0.159944 -0.240552 -0.025547 0 255 255
-0.16624 -0.248326 -0.026428 0 255 255
-0.161452 -0.239543 -0.025547 0 255 255
-0.151017 -0.222549 -0.023785 0 255 255
-0.157335 -0.230298 -0.024666 0 255 255
-0.158098 -0.229775 -0.024666 0 255 255
-0.164491 -0.237466 -0.025547 0 255 255
-0.165277 -0.236919 -0.025547 0 255 255
-0.160296 -0.228247 -0.024666 0 255 255
-0.17247 -0.24404 -0.026428 0 255 255
-0.155913 -0.219147 -0.023785 0 255 255
-0.16244 -0.226726 -0.024666 0 255 255
-0.157325 -0.218136 -0.023785 0 255 255
-0.152157 -0.20958 -0.022904 0 255 255
-0.158692 -0.217143 -0.023785 0 255 255
-0.141665 -0.192572 -0.021142 0 255 255
-0.14227 -0.192126 -0.021142 0 255 255
-0.130966 -0.175705 -0.01938 0 255 255
-0.137496 -0.18326 -0.020261 0 255 255
-0.138071 -0.182828 -0.020261 0 255 255
-0.126589 -0.166533 -0.018499 0 255 255
-0.14527 -0.189868 -0.021142 0 255 255
-0.13371 -0.173626 -0.01938 0 255 255
-0.130248 -0.163686 -0.018499 0 255 255
-0.137525 -0.17062 -0.01938 0 255 255
-0.138061 -0.170187 -0.01938 0 255 255
-0.144895 -0.177468 -0.020261 0 255 255
-0.151775 -0.184709 -0.021142 0 255 255
-0.152387 -0.184204 -0.021142 0 255 255
-0.159338 -0.19138 -0.022023 0 255 255
-0.166337 -0.198513 -0.022904 0 255 255
-0.179802 -0.21322 -0.024666 0 255 255
-0.174026 -0.205059 -0.023785 0 255 255
-0.200546 -0.234809 -0.027309 0 255 255
-0.207776 -0.241732 -0.02819 0 255 255
-0.215051 -0.248612 -0.029071 0 255 255
-0.215831 -0.247935 -0.029071 0 255 255
-0.229737 -0.262241 -0.030832 0 255 255
-0.243734 -0.276462 -0.032594 0 255 255
-0.251212 -0.283146 -0.033475 0 255 255
-0.25215 -0.282312 -0.033475 0 255 255
-0.266353 -0.296335 -0.035237 0 255 255
-0.267283 -0.295497 -0.035237 0 255 255
-0.274915 -0.302022 -0.036118 0 255 255
-0.282591 -0.308502 -0.036999 0 255 255
-0.276807 -0.300289 -0.036118 0 255 255
-0.291298 -0.314023 -0.03788 0 255 255
-0.292283 -0.313106 -0.03788 0 255 255
-0.300141 -0.319394 -0.038761 0 255 255
-0.287455 -0.303975 -0.036999 0 255 255
-0.295329 -0.310235 -0.03788 0 255 255
-0.296303 -0.309305 -0.03788 0 255 255
-0.297219 -0.308425 -0.03788 0 255 255
-0.291252 -0.300339 -0.036999 0 255 255
-0.306108 -0.313681 -0.038761 0 255 255
-0.300113 -0.30561 -0.03788 0 255 255
-0.31513 -0.318781 -0.039642 0 255 255
-0.309105 -0.310728 -0.038761 0 255 255
-0.317127 -0.316795 -0.039642 0 255 255
-0.318121 -0.315797 -0.039642 0 255 255
-0.319111 -0.314796 -0.039642 0 255 255
-0.320099 -0.313792 -0.039642 0 255 255
-0.349623 -0.340588 -0.043165 0 255 255
-0.37932 -0.367201 -0.046689 0 255 255
-0.358935 -0.34529 -0.044046 0 255 255
-0.381619 -0.364811 -0.046689 0 255 255
-0.375542 -0.356749 -0.045808 0 255 255
-0.362173 -0.341892 -0.044046 0 255 255
-0.334241 -0.313434 -0.040523 0 255 255
-0.327936 -0.305592 -0.039642 0 255 255
-0.314277 -0.291024 -0.03788 0 255 255
-0.35184 -0.32376 -0.042285 0 255 255
-0.338153 -0.309209 -0.040523 0 255 255
-0.361239 -0.328242 -0.043165 0 255 255
-0.377055 -0.340457 -0.044927 0 255 255
-0.385537 -0.345923 -0.045808 0 255 255
-0.394057 -0.351339 -0.046689 0 255 255
-0.380247 -0.336888 -0.044927 0 255 255
-0.403795 -0.355368 -0.04757 0 255 255
-0.397412 -0.34754 -0.046689 0 255 255
-0.434374 -0.365647 -0.050213 0 255 255
-0.443161 -0.370672 -0.051094 0 255 255
-0.459645 -0.382011 -0.052856 0 255 255
-0.468591 -0.386826 -0.053737 0 255 255
-0.462102 -0.379035 -0.052856 0 255 255
-0.447848 -0.364996 -0.051094 0 255 255
-0.456734 -0.369855 -0.051975 0 255 255
-0.465654 -0.374663 -0.052856 0 255 255
-0.474609 -0.379418 -0.053737 0 255 255
-0.467999 -0.37173 -0.052856 0 255 255
-0.476984 -0.376429 -0.053737 0 255 255
-0.478164 -0.374929 -0.053737 0 255 255
-0.47934 -0.373425 -0.053737 0 255 255
-0.496265 -0.384111 -0.055498 0 255 255
-0.505365 -0.388622 -0.056379 0 255 255
-0.490819 -0.374852 -0.054618 0 255 255
-0.523735 -0.397393 -0.058141 0 255 255
-0.524912 -0.395837 -0.058141 0 255 255
-0.518181 -0.388213 -0.05726 0 255 255
-0.495426 -0.368741 -0.054618 0 255 255
-0.528619 -0.390872 -0.058141 0 255 255
-0.529913 -0.389117 -0.058141 0 255 255
-0.531132 -0.38745 -0.058141 0 255 255
-0.540413 -0.391625 -0.059022 0 255 255
-0.525472 -0.378286 -0.05726 0 255 255
-0.518556 -0.370839 -0.056379 0 255 255
-0.511597 -0.363439 -0.055498 0 255 255
-0.529014 -0.373317 -0.05726 0 255 255
-0.530184 -0.371653 -0.05726 0 255 255
-0.531349 -0.369985 -0.05726 0 255 255
-0.507932 -0.351315 -0.054618 0 255 255
-0.476249 -0.327072 -0.051094 0 255 255
-0.427901 -0.291894 -0.045808 0 255 255
-0.428816 -0.290549 -0.045808 0 255 255
-0.429727 -0.2892 -0.045808 0 255 255
-0.430633 -0.287848 -0.045808 0 255 255
-0.449065 -0.296104 -0.04757 0 255 255
-0.458326 -0.300149 -0.048451 0 255 255
-0.492724 -0.320346 -0.051975 0 255 255
-0.48536 -0.313393 -0.051094 0 255 255
-0.461186 -0.295736 -0.048451 0 255 255
-0.462113 -0.294285 -0.048451 0 255 255
-0.463036 -0.292832 -0.048451 0 255 255
-0.447082 -0.28078 -0.046689 0 255 255
-0.447962 -0.279375 -0.046689 0 255 255
-0.423432 -0.262232 -0.044046 0 255 255
-0.441223 -0.271336 -0.045808 0 255 255
-0.425071 -0.259566 -0.044046 0 255 255
-0.506333 -0.298372 -0.051975 0 255 255
-0.49867 -0.291749 -0.051094 0 255 255
-0.479726 -0.264605 -0.048451 0 255 255
-0.49803 -0.272663 -0.050213 0 255 255
-0.473431 -0.255343 -0.04757 0 255 255
-0.447885 -0.239751 -0.044927 0 255 255
-0.457475 -0.242937 -0.045808 0 255 255
-0.440612 -0.23221 -0.044046 0 255 255
-0.441339 -0.230825 -0.044046 0 255 255
-0.450903 -0.234026 -0.044927 0 255 255
-0.469347 -0.24173 -0.046689 0 255 255
-0.478974 -0.244787 -0.04757 0 255 255
-0.461973 -0.234271 -0.045808 0 255 255
-0.453808 -0.228341 -0.044927 0 255 255
-0.454523 -0.226914 -0.044927 0 255 255
-0.437382 -0.216643 -0.043165 0 255 255
-0.43806 -0.215267 -0.043165 0 255 255
-0.42978 -0.209525 -0.042285 0 255 255
-0.439404 -0.212511 -0.043165 0 255 255
-0.440069 -0.211129 -0.043165 0 255 255
-0.431772 -0.20539 -0.042285 0 255 255
-0.480938 -0.217758 -0.046689 0 255 255
-0.499794 -0.224407 -0.048451 0 255 255
-0.530955 -0.201161 -0.050213 0 255 255
-0.522258 -0.195992 -0.049332 0 255 255
-0.532208 -0.197821 -0.050213 0 255 255
-0.523479 -0.192707 -0.049332 0 255 255
-0.505365 -0.184237 -0.04757 0 255 255
-0.51531 -0.186031 -0.048451 0 255 255
-0.468993 -0.167647 -0.044046 0 255 255
-0.460127 -0.162849 -0.043165 0 255 255
-0.441835 -0.154815 -0.041404 0 255 255
-0.423497 -0.146897 -0.039642 0 255 255
-0.414535 -0.142331 -0.038761 0 255 255
-0.386686 -0.131413 -0.036118 0 255 255
-0.396562 -0.133304 -0.036999 0 255 255
-0.415882 -0.138346 -0.038761 0 255 255
-0.4447 -0.146382 -0.041404 0 255 255
-0.445158 -0.144984 -0.041404 0 255 255
-0.43613 -0.14053 -0.040523 0 255 255
-0.417588 -0.133109 -0.038761 0 255 255
-0.446504 -0.140782 -0.041404 0 255 255
-0.446944 -0.139379 -0.041404 0 255 255
-0.44738 -0.137974 -0.041404 0 255 255
-0.457339 -0.139474 -0.042285 0 255 255
-0.476849 -0.143788 -0.044046 0 255 255
-0.458206 -0.136597 -0.042285 0 255 255
-0.458633 -0.135157 -0.042285 0 255 255
-0.459056 -0.133716 -0.042285 0 255 255
-0.459474 -0.132273 -0.042285 0 255 255
-0.440725 -0.125377 -0.040523 0 255 255
-0.441138 -0.123915 -0.040523 0 255 255
-0.41273 -0.114538 -0.03788 0 255 255
-0.403481 -0.110607 -0.036999 0 255 255
-0.384597 -0.104132 -0.035237 0 255 255
-0.384922 -0.102924 -0.035237 0 255 255
-0.404506 -0.1068 -0.036999 0 255 255
-0.404839 -0.105528 -0.036999 0 255 255
-0.424463 -0.10922 -0.038761 0 255 255
-0.424804 -0.107886 -0.038761 0 255 255
-0.382884 -0.065723 -0.034356 0 255 255
-0.373461 -0.061692 -0.033475 0 255 255
-0.36382 -0.058926 -0.032594 0 255 255
-0.373842 -0.059344 -0.033475 0 255 255
-0.383869 -0.059701 -0.034356 0 255 255
-0.374207 -0.056994 -0.033475 0 255 255
-0.364532 -0.05435 -0.032594 0 255 255
-0.354844 -0.051766 -0.031713 0 255 255
-0.374728 -0.053465 -0.033475 0 255 255
-0.384759 -0.053664 -0.034356 0 255 255
-0.384926 -0.052455 -0.034356 0 255 255
-0.375215 -0.049931 -0.033475 0 255 255
-0.365492 -0.047469 -0.032594 0 255 255
-0.385403 -0.048824 -0.034356 0 255 255
-0.385563 -0.047546 -0.034356 0 255 255
-0.346151 -0.041582 -0.030832 0 255 255
-0.356166 -0.041714 -0.031713 0 255 255
-0.336501 -0.038339 -0.029952 0 255 255
-0.316825 -0.035034 -0.02819 0 255 255
-0.297125 -0.031911 -0.026428 0 255 255
-0.317039 -0.033042 -0.02819 0 255 255
-0.29732 -0.030043 -0.026428 0 255 255
-0.307321 -0.030133 -0.027309 0 255 255
-0.297498 -0.028227 -0.026428 0 255 255
-0.28767 -0.026332 -0.025547 0 255 255
-0.277829 -0.024551 -0.024666 0 255 255
-0.297755 -0.02537 -0.026428 0 255 255
-0.307761 -0.025248 -0.027309 0 255 255
-0.297908 -0.023498 -0.026428 0 255 255
-0.307913 -0.023314 -0.027309 0 255 255
-0.29805 -0.021626 -0.026428 0 255 255
-0.317991 -0.022069 -0.02819 0 255 255
-0.29818 -0.019753 -0.026428 0 255 255
-0.298241 -0.018816 -0.026428 0 255 255
-0.298298 -0.017879 -0.026428 0 255 255
-0.298353 -0.016942 -0.026428 0 255 255
-0.318298 -0.017071 -0.02819 0 255 255
-0.298454 -0.015067 -0.026428 0 255 255
-0.318399 -0.015071 -0.02819 0 255 255
-0.308494 -0.013631 -0.027309 0 255 255
-0.338393 -0.013887 -0.029952 0 255 255
-0.338435 -0.012824 -0.029952 0 255 255
-0.368339 -0.012798 -0.032594 0 255 255
-0.414006 0.060249 -0.036999 0 255 255
-0.413815 0.06155 -0.036999 0 255 255
-0.423467 0.064346 -0.03788 0 255 255
-0.44295 0.068731 -0.039642 0 255 255
-0.481088 0.082407 -0.043165 0 255 255
-0.480015 0.088446 -0.043165 0 255 255
-0.541436 0.390209 -0.059022 0 255 255
-0.522885 0.381854 -0.05726 0 255 255
-0.497605 0.365795 -0.054618 0 255 255
-0.512468 0.379206 -0.056379 0 255 255
-0.503286 0.374864 -0.055498 0 255 255
-0.486166 0.364493 -0.053737 0 255 255
-0.485018 0.366019 -0.053737 0 255 255
-0.475997 0.361432 -0.052856 0 255 255
-0.466945 0.356877 -0.051975 0 255 255
-0.465821 0.358342 -0.051975 0 255 255
-0.464693 0.359804 -0.051975 0 255 255
-0.416419 0.324523 -0.046689 0 255 255
-0.423235 0.331978 -0.04757 0 255 255
-0.398735 0.314789 -0.044927 0 255 255
-0.405543 0.322237 -0.045808 0 255 255
-0.404528 0.323509 -0.045808 0 255 255
-0.39575 0.318533 -0.044927 0 255 255
-0.394748 0.319775 -0.044927 0 255 255
-0.393741 0.321013 -0.044927 0 255 255
-0.408132 0.334886 -0.046689 0 255 255
-0.464856 0.391307 -0.053737 0 255 255
-0.486426 0.412081 -0.056379 0 255 255
-0.485129 0.413608 -0.056379 0 255 255
-0.491387 0.421616 -0.05726 0 255 255
-0.482521 0.416648 -0.056379 0 255 255
-0.488728 0.424695 -0.05726 0 255 255
-0.479966 0.419587 -0.056379 0 255 255
-0.486125 0.427673 -0.05726 0 255 255
-0.484779 0.429198 -0.05726 0 255 255
-0.483428 0.430719 -0.05726 0 255 255
-0.474656 0.425585 -0.056379 0 255 255
-0.465921 0.420402 -0.055498 0 255 255
-0.449849 0.408471 -0.053737 0 255 255
-0.433857 0.396443 -0.051975 0 255 255
-0.425276 0.391062 -0.051094 0 255 255
-0.431357 0.399161 -0.051975 0 255 255
-0.430101 0.400514 -0.051975 0 255 255
-0.42884 0.401864 -0.051975 0 255 255
-0.44207 0.416877 -0.053737 0 255 255
-0.433533 0.411407 -0.052856 0 255 255
-0.45385 0.433405 -0.055498 0 255 255
-0.445304 0.427927 -0.054618 0 255 255
-0.451194 0.43617 -0.055498 0 255 255
-0.449822 0.437585 -0.055498 0 255 255
-0.35508 0.417218 -0.048451 0 255 255
-0.353768 0.418331 -0.048451 0 255 255
-0.346043 0.411814 -0.04757 0 255 255
-0.338364 0.405253 -0.046689 0 255 255
-0.324369 0.390981 -0.044927 0 255 255
-0.304195 0.368887 -0.042285 0 255 255
-0.315661 0.385251 -0.044046 0 255 255
-0.314449 0.38624 -0.044046 0 255 255
-0.306969 0.379482 -0.043165 0 255 255
-0.299536 0.37268 -0.042285 0 255 255
-0.298363 0.373619 -0.042285 0 255 255
-0.303379 0.382358 -0.043165 0 255 255
-0.29601 0.375487 -0.042285 0 255 255
-0.288686 0.368573 -0.041404 0 255 255
-0.293645 0.377339 -0.042285 0 255 255
-0.298551 0.38614 -0.043165 0 255 255
-0.291268 0.379177 -0.042285 0 255 255
-0.284032 0.372171 -0.041404 0 255 255
-0.28888 0.380999 -0.042285 0 255 255
-0.293675 0.389861 -0.043165 0 255 255
-0.28648 0.382807 -0.042285 0 255 255
-0.279333 0.375711 -0.041404 0 255 255
-0.284069 0.384599 -0.042285 0 255 255
-0.282927 0.38544 -0.042285 0 255 255
-0.281715 0.386327 -0.042285 0 255 255
-0.2805 0.38721 -0.042285 0 255 255
-0.279282 0.38809 -0.042285 0 255 255
-0.272268 0.380862 -0.041404 0 255 255
-0.271071 0.381715 -0.041404 0 255 255
-0.275612 0.390705 -0.042285 0 255 255
-0.268667 0.383411 -0.041404 0 255 255
-0.267461 0.384253 -0.041404 0 255 255
-0.271917 0.393285 -0.042285 0 255 255
-0.265109 0.38588 -0.041404 0 255 255
-0.263895 0.386711 -0.041404 0 255 255
-0.262679 0.387538 -0.041404 0 255 255
-0.26146 0.388361 -0.041404 0 255 255
-0.260239 0.389181 -0.041404 0 255 255
-0.253504 0.381698 -0.040523 0 255 255
-0.257788 0.390808 -0.041404 0 255 255
-0.2511 0.383284 -0.040523 0 255 255
-0.255328 0.39242 -0.041404 0 255 255
-0.254094 0.39322 -0.041404 0 255 255
-0.252857 0.394017 -0.041404 0 255 255
-0.251618 0.394809 -0.041404 0 255 255
-0.245049 0.387181 -0.040523 0 255 255
-0.254433 0.404816 -0.042285 0 255 255
-0.25316 0.405613 -0.042285 0 255 255
-0.251884 0.406406 -0.042285 0 255 255
-0.234944 0.381746 -0.039642 0 255 255
-0.244132 0.399482 -0.041404 0 255 255
-2.1847 4.96982 -0.480106 0 255 255
-2.10938 4.83968 -0.466892 0 255 255
-2.09811 4.85543 -0.467773 0 255 255
-2.11815 4.94441 -0.475701 0 255 255
-2.09482 4.9327 -0.47394 0 255 255
-0.081163 0.192796 -0.018499 0 255 255
-0.080557 0.19305 -0.018499 0 255 255
-0.077548 0.194278 -0.018499 0 255 255
-1.78522 5.01072 -0.470416 0 255 255
-4.50855 14.0257 -1.30289 0 255 255
-4.46447 14.0398 -1.30289 0 255 255
-4.41735 14.0442 -1.30201 0 255 255
-4.37321 14.058 -1.30201 0 255 255
-4.34367 14.1193 -1.30642 0 255 255
-4.29305 14.1035 -1.30377 0 255 255
-4.24585 14.1074 -1.30289 0 255 255
-4.21288 14.1589 -1.30642 0 255 255
-4.17399 14.1912 -1.30818 0 255 255
-4.12939 14.2042 -1.30818 0 255 255
-4.08474 14.2171 -1.30818 0 255 255
-4.04278 14.2394 -1.30906 0 255 255
-3.99803 14.2521 -1.30906 0 255 255
-3.95057 14.255 -1.30818 0 255 255
-3.9084 14.2769 -1.30906 0 255 255
-3.86613 14.2987 -1.30994 0 255 255
-3.81605 14.2916 -1.30818 0 255 255
-3.78129 14.342 -1.3117 0 255 255
-3.73371 14.3442 -1.31082 0 255 255
-3.69358 14.3751 -1.31258 0 255 255
-3.64595 14.377 -1.3117 0 255 255
-3.6057 14.3974 -1.31258 0 255 255
-3.56523 14.428 -1.31435 0 255 255
-3.51989 14.4392 -1.31435 0 255 255
-3.47218 14.4405 -1.31346 0 255 255
-3.43369 14.4804 -1.31611 0 255 255
-3.38818 14.4911 -1.31611 0 255 255
-3.34264 14.5017 -1.31611 0 255 255
-3.29486 14.5024 -1.31523 0 255 255
-3.25364 14.5321 -1.31699 0 255 255
-3.21011 14.552 -1.31787 0 255 255
-3.16438 14.562 -1.31787 0 255 255
-3.1207 14.5816 -1.31875 0 255 255
-3.07282 14.5816 -1.31787 0 255 255
-3.03104 14.6107 -1.31963 0 255 255
-2.98768 14.6196 -1.31963 0 255 255
-2.94174 14.6289 -1.31963 0 255 255
-2.89577 14.6381 -1.31963 0 255 255
-2.85166 14.6569 -1.32051 0 255 255
-2.80748 14.6756 -1.32139 0 255 255
-2.7632 14.6941 -1.32227 0 255 255
-2.71702 14.7027 -1.32227 0 255 255
-2.6726 14.721 -1.32316 0 255 255
-2.62808 14.7391 -1.32404 0 255 255
-2.58177 14.7473 -1.32404 0 255 255
-2.53632 14.7451 -1.32316 0 255 255
-2.49495 14.7824 -1.3258 0 255 255
-2.45013 14.8 -1.32668 0 255 255
-2.40362 14.8076 -1.32668 0 255 255
-2.35865 14.825 -1.32756 0 255 255
-2.31514 14.852 -1.32932 0 255 255
-2.26846 14.8592 -1.32932 0 255 255
-2.22177 14.8662 -1.32932 0 255 255
-2.17909 14.8826 -1.3302 0 255 255
-2.13515 14.9091 -1.33196 0 255 255
-2.08693 14.9059 -1.33108 0 255 255
-2.04009 14.9124 -1.33108 0 255 255
-1.99587 14.9384 -1.33284 0 255 255
-1.94764 14.9348 -1.33196 0 255 255
-1.90322 14.9606 -1.33373 0 255 255
-1.85744 14.9764 -1.33461 0 255 255
-1.81277 15.0019 -1.33637 0 255 255
-1.76447 14.9976 -1.33549 0 255 255
-1.71734 15.0031 -1.33549 0 255 255
-1.6713 15.0183 -1.33637 0 255 255
-1.62781 15.0331 -1.33725 0 255 255
-1.58057 15.0381 -1.33725 0 255 255
-1.53433 15.053 -1.33813 0 255 255
-1.48703 15.0577 -1.33813 0 255 255
-1.43972 15.0623 -1.33813 0 255 255
-1.39331 15.0767 -1.33901 0 255 255
-1.34682 15.0909 -1.33989 0 255 255
-1.30112 15.1149 -1.34165 0 255 255
-1.25362 15.1189 -1.34165 0 255 255
-1.20612 15.1228 -1.34165 0 255 255
-1.16013 15.1463 -1.34342 0 255 255
-1.11327 15.1599 -1.3443 0 255 255
-1.06494 15.1533 -1.34342 0 255 255
-1.01933 15.1864 -1.34606 0 255 255
-0.974266 15.1894 -1.34606 0 255 255
-0.926546 15.1924 -1.34606 0 255 255
-0.879959 15.2151 -1.34782 0 255 255
-0.832702 15.2277 -1.3487 0 255 255
-0.784348 15.2203 -1.34782 0 255 255
-0.737487 15.2426 -1.34958 0 255 255
-0.6896 15.2449 -1.34958 0 255 255
-0.642537 15.2668 -1.35134 0 255 255
-0.5938 15.2489 -1.34958 0 255 255
-0.545894 15.2507 -1.34958 0 255 255
-0.499601 15.3021 -1.35399 0 255 255
-0.451528 15.3036 -1.35399 0 255 255
-0.403707 15.3149 -1.35487 0 255 255
-0.355594 15.3161 -1.35487 0 255 255
-0.310354 15.327 -1.35575 0 255 255
-0.262196 15.3279 -1.35575 0 255 255
-0.214183 15.3386 -1.35663 0 255 255
-0.16599 15.3392 -1.35663 0 255 255
-0.117879 15.3496 -1.35751 0 255 255
-0.069704 15.3599 -1.35839 0 255 255
-0.021445 15.36 -1.35839 0 255 255
0.026824 15.37 -1.35927 0 255 255
0.075115 15.3698 -1.35927 0 255 255
0.123317 15.3596 -1.35839 0 255 255
0.168886 15.3591 -1.35839 0 255 255
0.217283 15.3685 -1.35927 0 255 255
0.265732 15.3777 -1.36015 0 255 255
0.314046 15.3768 -1.36015 0 255 255
0.362584 15.3857 -1.36103 0 255 255
0.41118 15.3944 -1.36192 0 255 255
0.459545 15.393 -1.36192 0 255 255
0.508227 15.4015 -1.3628 0 255 255
0.556614 15.3998 -1.3628 0 255 255
0.604989 15.398 -1.3628 0 255 255
0.65109 15.4061 -1.36368 0 255 255
0.699039 15.394 -1.3628 0 255 255
0.748361 15.4116 -1.36456 0 255 255
0.797807 15.4291 -1.36632 0 255 255
0.846818 15.4365 -1.3672 0 255 255
0.894729 15.4238 -1.36632 0 255 255
0.943792 15.4308 -1.3672 0 255 255
0.992262 15.4278 -1.3672 0 255 255
1.04139 15.4345 -1.36808 0 255 255
1.08918 15.4212 -1.3672 0 255 255
1.13566 15.4279 -1.36808 0 255 255
1.18412 15.4242 -1.36808 0 255 255
1.23337 15.4304 -1.36896 0 255 255
1.28266 15.4363 -1.36984 0 255 255
1.33029 15.4223 -1.36896 0 255 255
1.38051 15.4379 -1.37073 0 255 255
1.42993 15.4434 -1.37161 0 255 255
1.47748 15.4289 -1.37073 0 255 255
1.52692 15.4341 -1.37161 0 255 255
1.57642 15.4392 -1.37249 0 255 255
1.62387 15.4242 -1.37161 0 255 255
1.67232 15.419 -1.37161 0 255 255
1.72296 15.4335 -1.37337 0 255 255
1.77144 15.428 -1.37337 0 255 255
1.81721 15.4227 -1.37337 0 255 255
1.86685 15.4268 -1.37425 0 255 255
1.91654 15.4307 -1.37513 0 255 255
1.965 15.4247 -1.37513 0 255 255
2.01344 15.4184 -1.37513 0 255 255
2.06056 15.4021 -1.37425 0 255 255
2.11028 15.4054 -1.37513 0 255 255
2.15867 15.3987 -1.37513 0 255 255
2.20845 15.4017 -1.37601 0 255 255
2.25682 15.3947 -1.37601 0 255 255
2.30666 15.3974 -1.37689 0 255 255
2.35652 15.3999 -1.37777 0 255 255
2.39914 15.3732 -1.37601 0 255 255
2.44898 15.3754 -1.37689 0 255 255
2.49887 15.3775 -1.37777 0 255 255
2.54554 15.3597 -1.37689 0 255 255
2.59876 15.3811 -1.37953 0 255 255
2.64538 15.3631 -1.37865 0 255 255
2.68847 15.3252 -1.37601 0 255 255
2.7401 15.3363 -1.37777 0 255 255
2.78649 15.3179 -1.37689 0 255 255
2.83641 15.3188 -1.37777 0 255 255
2.89005 15.3392 -1.38041 0 255 255
2.9326 15.3007 -1.37777 0 255 255
2.9818 15.3115 -1.37953 0 255 255
3.02795 15.2923 -1.37865 0 255 255
3.07991 15.3022 -1.38041 0 255 255
3.12597 15.2827 -1.37953 0 255 255
3.17599 15.2826 -1.38041 0 255 255
3.22604 15.2822 -1.3813 0 255 255
3.26512 15.2434 -1.37865 0 255 255
3.31722 15.2525 -1.38041 0 255 255
3.36297 15.2323 -1.37953 0 255 255
3.41735 15.2508 -1.38218 0 255 255
3.46303 15.2303 -1.3813 0 255 255
3.5131 15.229 -1.38218 0 255 255
3.5632 15.2276 -1.38306 0 255 255
3.61102 15.2164 -1.38306 0 255 255
3.65881 15.2049 -1.38306 0 255 255
3.70891 15.2031 -1.38394 0 255 255
3.76118 15.221 -1.38658 0 255 255
3.80656 15.1994 -1.3857 0 255 255
3.85918 15.2067 -1.38746 0 255 255
3.90694 15.1945 -1.38746 0 255 255
3.95717 15.1918 -1.38834 0 255 255
4.00488 15.1793 -1.38834 0 255 255
4.05511 15.1763 -1.38922 0 255 255
4.10017 15.1538 -1.38834 0 255 255
4.16092 15.1889 -1.39275 0 255 255
4.21393 15.195 -1.39451 0 255 255
4.24824 15.144 -1.39099 0 255 255
4.29852 15.1402 -1.39187 0 255 255
4.35431 15.1553 -1.39451 0 255 255
4.40746 15.1607 -1.39627 0 255 255
4.45507 15.1468 -1.39627 0 255 255
4.49695 15.1136 -1.39451 0 255 255
4.55015 15.1185 -1.39627 0 255 255
4.60343 15.1232 -1.39803 0 255 255
4.64506 15.0896 -1.39627 0 255 255
4.70428 15.113 -1.3998 0 255 255
4.74875 15.0886 -1.39892 0 255 255
4.79914 15.0831 -1.3998 0 255 255
4.84387 15.0688 -1.3998 0 255 255
4.88811 15.0441 -1.39892 0 255 255
4.94467 15.057 -1.40156 0 255 255
4.98881 15.032 -1.40068 0 255 255
5.04235 15.0351 -1.40244 0 255 255
5.08636 15.0098 -1.40156 0 255 255
5.13672 15.0031 -1.40244 0 255 255
5.18383 14.9869 -1.40244 0 255 255
0.792705 2.22372 -0.20878 0 255 255
0.782817 2.17436 -0.204375 0 255 255
0.827511 2.23226 -0.210542 0 255 255
0.813569 2.17368 -0.205256 0 255 255
0.823535 2.18057 -0.206137 0 255 255
0.830381 2.17797 -0.206137 0 255 255
0.837219 2.17535 -0.206137 0 255 255
5.84618 14.7733 -1.40508 0 255 255
5.88887 14.7456 -1.4042 0 255 255
5.93889 14.7363 -1.40508 0 255 255
5.98891 14.7268 -1.40596 0 255 255
6.03136 14.6987 -1.40508 0 255 255
6.08132 14.6889 -1.40596 0 255 255
6.1236 14.6605 -1.40508 0 255 255
6.17349 14.6504 -1.40596 0 255 255
6.21559 14.6217 -1.40508 0 255 255
6.26287 14.6124 -1.40596 0 255 255
6.30479 14.5835 -1.40508 0 255 255
6.3665 14.6001 -1.4086 0 255 255
6.4003 14.5527 -1.40596 0 255 255
6.45811 14.5598 -1.4086 0 255 255
6.50382 14.5395 -1.4086 0 255 255
6.55356 14.528 -1.40949 0 255 255
6.59092 14.4893 -1.40772 0 255 255
6.64471 14.4866 -1.40949 0 255 255
6.68601 14.4566 -1.4086 0 255 255
6.73981 14.4536 -1.41037 0 255 255
6.78095 14.4233 -1.40949 0 255 255
6.47133 13.4344 -1.31875 0 255 255
6.50915 13.4051 -1.31787 0 255 255
5.94979 12.0597 -1.18925 0 255 255
5.94564 11.9617 -1.18132 0 255 255
6.764 13.5015 -1.33549 0 255 255
6.87372 13.6136 -1.3487 0 255 255
6.86224 13.4854 -1.33813 0 255 255
6.09548 11.886 -1.18132 0 255 255
7.12926 13.38 -1.34077 0 255 255
7.17834 13.3763 -1.34254 0 255 255
7.22034 13.3537 -1.34254 0 255 255
7.30037 13.401 -1.34958 0 255 255
7.39036 13.4653 -1.35839 0 255 255
6.76263 12.2303 -1.23594 0 255 255
3.60653 6.47433 -0.655411 0 255 255
3.58785 6.39348 -0.648363 0 255 255
3.64714 6.45154 -0.655411 0 255 255
7.70233 13.4273 -1.36896 0 255 255
6.76769 11.7125 -1.1963 0 255 255
6.79945 11.6826 -1.19542 0 255 255
6.84619 11.6784 -1.19718 0 255 255
6.92336 11.7254 -1.20423 0 255 255
7.18717 12.0902 -1.24387 0 255 255
7.30699 12.2043 -1.25797 0 255 255
7.20127 11.9424 -1.2333 0 255 255
7.26977 11.9708 -1.23858 0 255 255
7.28655 11.9139 -1.23506 0 255 255
7.36574 11.9588 -1.24211 0 255 255
7.55029 12.1726 -1.26678 0 255 255
7.64127 12.2333 -1.27558 0 255 255
7.47282 11.8804 -1.24123 0 255 255
7.54741 11.9158 -1.2474 0 255 255
7.55596 11.8514 -1.24299 0 255 255
7.6093 11.8527 -1.24563 0 255 255
7.62487 11.7953 -1.24211 0 255 255
7.66189 11.7713 -1.24211 0 255 255
7.81895 11.9304 -1.26149 0 255 255
7.91126 11.9889 -1.2703 0 255 255
7.89927 11.8894 -1.26237 0 255 255
8.00304 11.9638 -1.27294 0 255 255
8.16301 12.1204 -1.29232 0 255 255
8.01656 11.8226 -1.26325 0 255 255
8.02559 11.7562 -1.25885 0 255 255
8.08505 11.7638 -1.26237 0 255 255
8.03694 11.6155 -1.24916 0 255 255
8.15311 11.7046 -1.26149 0 255 255
8.18984 11.6789 -1.26149 0 255 255
8.11734 11.4985 -1.24475 0 255 255
8.09373 11.3932 -1.23594 0 255 255
