ply
format ascii 1.0
element vertex 1281
property float x
property float y
property float z
property uchar red
property uchar green
property uchar blue
end_header
-4.45329 20.4417 -1.09837 0 255 255
-4.3968 20.4744 -1.09942 0 255 255
-4.32832 20.4686 -1.09837 0 255 255
-4.25993 20.4625 -1.09732 0 255 255
-4.19161 20.4562 -1.09628 0 255 255
-0.432275 2.14384 -0.114818 0 255 255
-0.423594 2.13539 -0.114294 0 255 255
-0.415342 2.12684 -0.113769 0 255 255
-3.98677 20.7616 -1.10991 0 255 255
-3.92709 20.8034 -1.11148 0 255 255
-3.85808 20.796 -1.11043 0 255 255
-3.7963 20.8277 -1.11148 0 255 255
-3.73436 20.8592 -1.11253 0 255 255
-3.67765 20.8997 -1.1141 0 255 255
-3.61708 20.9406 -1.11567 0 255 255
-0.365851 2.15617 -0.114818 0 255 255
-3.47925 20.9032 -1.11253 0 255 255
-3.42804 21.0028 -1.11725 0 255 255
-3.36047 21.0036 -1.11672 0 255 255
-3.29138 20.9943 -1.11567 0 255 255
-3.2254 21.0045 -1.11567 0 255 255
-3.16088 21.0244 -1.1162 0 255 255
-3.09627 21.0441 -1.11672 0 255 255
-3.04521 21.1323 -1.12092 0 255 255
-2.97463 21.1121 -1.11934 0 255 255
-2.91646 21.1807 -1.12249 0 255 255
-2.84858 21.1799 -1.12197 0 255 255
-2.79613 21.2674 -1.12616 0 255 255
-0.271914 2.11969 -0.112197 0 255 255
-0.264014 2.11062 -0.111672 0 255 255
-0.261007 2.14118 -0.113245 0 255 255
-0.254653 2.14194 -0.113245 0 255 255
-0.246774 2.13281 -0.112721 0 255 255
-0.23784 2.11373 -0.111672 0 255 255
-0.232284 2.12439 -0.112197 0 255 255
-0.227036 2.135 -0.112721 0 255 255
-0.219302 2.12578 -0.112197 0 255 255
-0.213616 2.13639 -0.112721 0 255 255
-0.206904 2.13705 -0.112721 0 255 255
-0.199258 2.12775 -0.112197 0 255 255
-0.193472 2.13831 -0.112721 0 255 255
-0.188868 2.15877 -0.113769 0 255 255
-0.179567 2.1295 -0.112197 0 255 255
-0.174493 2.14996 -0.113245 0 255 255
-0.166961 2.14054 -0.112721 0 255 255
-0.156508 2.09126 -0.110099 0 255 255
-0.149938 2.09174 -0.110099 0 255 255
-0.145784 2.12207 -0.111672 0 255 255
-1.37093 20.9163 -1.10047 0 255 255
-0.852155 21.0338 -1.10519 0 255 255
-0.434626 17.4106 -0.91435 0 255 255
-0.448335 20.5468 -1.07897 0 255 255
-0.278952 22.1977 -1.16548 0 255 255
-0.209878 22.2683 -1.16915 0 255 255
0.210149 22.7177 -1.19274 0 255 255
0.622616 22.4305 -1.17806 0 255 255
6.42083 23.1842 -1.263 0 255 255
6.5814 23.2118 -1.26667 0 255 255
0.824197 2.20794 -0.123731 0 255 255
0.823704 2.18679 -0.122682 0 255 255
0.837669 2.20286 -0.123731 0 255 255
0.833849 2.17225 -0.122158 0 255 255
0.819021 2.11375 -0.119012 0 255 255
0.825657 2.11117 -0.119012 0 255 255
9.16113 23.0092 -1.30022 0 255 255
9.21847 22.9432 -1.29813 0 255 255
9.30552 22.9512 -1.30022 0 255 255
9.34732 22.8479 -1.29603 0 255 255
9.47621 22.9569 -1.30389 0 255 255
9.54444 22.9178 -1.30337 0 255 255
9.64347 22.9521 -1.30704 0 255 255
9.72722 22.9493 -1.30861 0 255 255
9.7835 22.8928 -1.30704 0 255 255
9.86723 22.8894 -1.30861 0 255 255
9.94705 22.8767 -1.30966 0 255 255
10.0269 22.8636 -1.31071 0 255 255
10.0664 22.7698 -1.30704 0 255 255
10.1582 22.7837 -1.30966 0 255 255
10.2257 22.7425 -1.30913 0 255 255
10.2971 22.7103 -1.30913 0 255 255
10.3642 22.6688 -1.30861 0 255 255
10.4396 22.6451 -1.30913 0 255 255
10.473 22.5416 -1.30494 0 255 255
10.565 22.5538 -1.30756 0 255 255
10.6656 22.5837 -1.31123 0 255 255
10.8181 22.7214 -1.32119 0 255 255
10.924 22.7593 -1.32539 0 255 255
10.978 22.689 -1.32329 0 255 255
11.0497 22.6653 -1.32381 0 255 255
11.1517 22.6932 -1.32748 0 255 255
11.2628 22.7386 -1.3322 0 255 255
11.361 22.7567 -1.33535 0 255 255
11.3965 22.6495 -1.33115 0 255 255
11.5895 22.8541 -1.34531 0 255 255
11.6982 22.8996 -1.35003 0 255 255
11.7883 22.8983 -1.35213 0 255 255
11.9614 23.0561 -1.36366 0 255 255
12.0338 23.0185 -1.36366 0 255 255
12.0787 22.9385 -1.36104 0 255 255
12.1226 22.8475 -1.35789 0 255 255
12.1897 22.8005 -1.35737 0 255 255
12.2376 22.7181 -1.35475 0 255 255
12.2906 22.6554 -1.35318 0 255 255
12.3569 22.6079 -1.35265 0 255 255
12.399 22.5165 -1.3495 0 255 255
12.4406 22.425 -1.34636 0 255 255
12.4672 22.3074 -1.34164 0 255 255
12.5176 22.2333 -1.33954 0 255 255
12.5933 22.2134 -1.34059 0 255 255
12.6234 22.1044 -1.3364 0 255 255
12.658 22.004 -1.33273 0 255 255
12.712 21.9382 -1.33115 0 255 255
12.7607 21.8637 -1.32906 0 255 255
12.8243 21.8149 -1.32853 0 255 255
12.8686 21.7423 -1.32644 0 255 255
12.9369 21.7018 -1.32644 0 255 255
12.969 21.6011 -1.32277 0 255 255
13.0161 21.5261 -1.32067 0 255 255
13.0747 21.4788 -1.32015 0 255 255
13.1369 21.4291 -1.31962 0 255 255
13.1937 21.3708 -1.31857 0 255 255
13.2502 21.3123 -1.31752 0 255 255
13.333 21.2959 -1.3191 0 255 255
13.3786 21.2201 -1.317 0 255 255
13.4308 21.1635 -1.31595 0 255 255
13.4757 21.0875 -1.31385 0 255 255
13.531 21.0283 -1.31281 0 255 255
13.6025 20.9941 -1.31333 0 255 255
13.6738 20.9596 -1.31385 0 255 255
13.7012 20.8581 -1.31018 0 255 255
13.7612 20.8066 -1.30966 0 255 255
13.8375 20.7799 -1.31071 0 255 255
13.8936 20.7305 -1.31018 0 255 255
13.9475 20.6702 -1.30913 0 255 255
13.9955 20.6015 -1.30756 0 255 255
14.094 20.6068 -1.31071 0 255 255
14.1777 20.5978 -1.31281 0 255 255
14.1911 20.4793 -1.30809 0 255 255
14.2897 20.4838 -1.31123 0 255 255
14.3712 20.4633 -1.31281 0 255 255
14.5622 20.5975 -1.32434 0 255 255
14.6616 20.6004 -1.32748 0 255 255
9.18937 12.8261 -0.828368 0 255 255
14.8667 20.6132 -1.3343 0 255 255
14.9161 20.5528 -1.33325 0 255 255
9.35475 12.8051 -0.832562 0 255 255
9.37718 12.7515 -0.830989 0 255 255
15.1863 20.5157 -1.34007 0 255 255
15.2829 20.5186 -1.34321 0 255 255
15.3653 20.4944 -1.34479 0 255 255
10.136 13.4314 -0.883417 0 255 255
15.5967 20.407 -1.34846 0 255 255
15.7155 20.4291 -1.35318 0 255 255
10.1733 13.139 -0.872407 0 255 255
15.862 20.3536 -1.35475 0 255 255
10.3604 13.2084 -0.88132 0 255 255
10.4699 13.262 -0.887087 0 255 255
10.4432 13.143 -0.88132 0 255 255
10.6217 13.2817 -0.892854 0 255 255
10.7299 13.3357 -0.898622 0 255 255
16.4844 20.3565 -1.3752 0 255 255
10.9649 13.4538 -0.911204 0 255 255
10.9881 13.3962 -0.909632 0 255 255
10.8562 13.1555 -0.895476 0 255 255
10.8783 13.0983 -0.893903 0 255 255
11.1179 13.3016 -0.910156 0 255 255
11.1082 13.2055 -0.905962 0 255 255
11.1174 13.1324 -0.90334 0 255 255
11.1521 13.0898 -0.902816 0 255 255
11.2322 13.1002 -0.905962 0 255 255
17.4514 20.2248 -1.40246 0 255 255
11.4102 13.1445 -0.913826 0 255 255
11.1229 12.7325 -0.887612 0 255 255
17.7103 20.145 -1.40823 0 255 255
12.0696 13.6422 -0.956293 0 255 255
12.1631 13.666 -0.960487 0 255 255
12.1618 13.4928 -0.953671 0 255 255
12.3652 13.6321 -0.966254 0 255 255
12.0713 13.2244 -0.94004 0 255 255
12.079 13.1496 -0.937419 0 255 255
12.6375 13.5853 -0.974118 0 255 255
12.9848 13.8759 -0.997711 0 255 255
13.0968 13.9077 -1.00295 0 255 255
13.2366 13.968 -1.01029 0 255 255
18.9041 19.8235 -1.43811 0 255 255
18.9594 19.7568 -1.43758 0 255 255
19.0283 19.7044 -1.43811 0 255 255
19.0936 19.655 -1.43863 0 255 255
13.2705 13.575 -0.996663 0 255 255
13.3971 13.6187 -1.00295 0 255 255
13.8051 13.9456 -1.03022 0 255 255
13.4472 13.4989 -1.00033 0 255 255
14.1046 14.0702 -1.04595 0 255 255
14.15 13.9392 -1.0428 0 255 255
14.2983 14.002 -1.05066 0 255 255
14.1132 13.7341 -1.03389 0 255 255
12.9608 12.455 -0.94371 0 255 255
12.9327 12.3544 -0.938991 0 255 255
13.0101 12.2729 -0.938991 0 255 255
7.01327 6.49209 -0.501739 0 255 255
7.35702 6.76749 -0.524808 0 255 255
7.40772 6.7713 -0.526905 0 255 255
7.39083 6.71571 -0.524283 0 255 255
7.36001 6.64561 -0.520613 0 255 255
7.10583 6.3757 -0.501215 0 255 255
7.178 6.39987 -0.504885 0 255 255
7.30159 6.47127 -0.512225 0 255 255
7.19448 6.3361 -0.503312 0 255 255
7.17678 6.28058 -0.500691 0 255 255
7.2869 6.33664 -0.506982 0 255 255
7.45789 6.4443 -0.517468 0 255 255
7.47052 6.41433 -0.516943 0 255 255
7.55141 6.44268 -0.521138 0 255 255
1.62656 1.37066 -0.111672 0 255 255
1.60023 1.3399 -0.109575 0 255 255
1.60444 1.33487 -0.109575 0 255 255
1.60092 1.32346 -0.109051 0 255 255
1.60508 1.31842 -0.109051 0 255 255
1.60921 1.31337 -0.109051 0 255 255
1.58983 1.28972 -0.107478 0 255 255
1.63275 1.31605 -0.110099 0 255 255
1.66026 1.32965 -0.111672 0 255 255
1.66443 1.32442 -0.111672 0 255 255
1.66075 1.31299 -0.111148 0 255 255
1.65701 1.3016 -0.110624 0 255 255
1.66897 1.30253 -0.111148 0 255 255
1.66516 1.29116 -0.110624 0 255 255
1.66107 1.28012 -0.110099 0 255 255
1.65716 1.26883 -0.109575 0 255 255
1.66113 1.26362 -0.109575 0 255 255
1.6651 1.25839 -0.109575 0 255 255
1.61293 1.21146 -0.105905 0 255 255
1.61673 1.20639 -0.105905 0 255 255
1.62853 1.20725 -0.10643 0 255 255
1.62428 1.19621 -0.105905 0 255 255
1.62803 1.1911 -0.105905 0 255 255
1.62368 1.18011 -0.105381 0 255 255
1.62718 1.17528 -0.105381 0 255 255
1.63086 1.17017 -0.105381 0 255 255
1.6264 1.15924 -0.104857 0 255 255
1.63003 1.15413 -0.104857 0 255 255
1.62548 1.14325 -0.104332 0 255 255
1.63725 1.14386 -0.104857 0 255 255
1.63243 1.1333 -0.104332 0 255 255
1.61132 1.11116 -0.10276 0 255 255
1.60676 1.10017 -0.102235 0 255 255
1.61846 1.10073 -0.10276 0 255 255
1.66309 1.12388 -0.105381 0 255 255
1.66662 1.11865 -0.105381 0 255 255
1.67843 1.11895 -0.105905 0 255 255
1.67361 1.10816 -0.105381 0 255 255
1.66855 1.0977 -0.104857 0 255 255
1.67199 1.09245 -0.104857 0 255 255
1.66704 1.08176 -0.104332 0 255 255
1.67043 1.07652 -0.104332 0 255 255
1.6738 1.07126 -0.104332 0 255 255
1.67716 1.066 -0.104332 0 255 255
1.67187 1.05569 -0.103808 0 255 255
1.67518 1.05043 -0.103808 0 255 255
1.62761 1.01349 -0.100662 0 255 255
1.62229 1.00312 -0.100138 0 255 255
1.61692 0.992793 -0.099614 0 255 255
1.62003 0.987709 -0.099614 0 255 255
1.62296 0.982897 -0.099614 0 255 255
1.62604 0.977794 -0.099614 0 255 255
1.62053 0.967561 -0.09909 0 255 255
1.62356 0.962466 -0.09909 0 255 255
1.62657 0.957361 -0.09909 0 255 255
1.62957 0.952246 -0.09909 0 255 255
1.61528 0.937099 -0.098041 0 255 255
1.62687 0.937004 -0.098565 0 255 255
1.62098 0.927215 -0.098041 0 255 255
1.62388 0.922118 -0.098041 0 255 255
1.61807 0.912107 -0.097517 0 255 255
1.61221 0.902143 -0.096992 0 255 255
1.61504 0.897074 -0.096992 0 255 255
1.63534 0.901639 -0.098041 0 255 255
1.67321 0.915674 -0.100138 0 255 255
1.6673 0.905646 -0.099614 0 255 255
1.66998 0.900695 -0.099614 0 255 255
1.6728 0.895444 -0.099614 0 255 255
1.66679 0.8855 -0.09909 0 255 255
1.67839 0.884916 -0.099614 0 255 255
1.67232 0.875009 -0.09909 0 255 255
1.67506 0.869751 -0.09909 0 255 255
1.67763 0.864777 -0.09909 0 255 255
1.68034 0.859503 -0.09909 0 255 255
1.68303 0.854219 -0.09909 0 255 255
1.68571 0.848927 -0.09909 0 255 255
1.67943 0.839164 -0.098565 0 255 255
1.65522 0.820578 -0.096992 0 255 255
1.62194 0.797743 -0.094895 0 255 255
1.61547 0.788265 -0.094371 0 255 255
1.61793 0.783185 -0.094371 0 255 255
1.62939 0.782422 -0.094895 0 255 255
1.62269 0.773288 -0.094371 0 255 255
1.61608 0.763918 -0.093847 0 255 255
1.61847 0.758838 -0.093847 0 255 255
1.62085 0.753749 -0.093847 0 255 255
1.61401 0.744753 -0.093322 0 255 255
1.62542 0.743834 -0.093847 0 255 255
1.61866 0.734597 -0.093322 0 255 255
1.62096 0.729508 -0.093322 0 255 255
1.62324 0.724412 -0.093322 0 255 255
1.61638 0.715268 -0.092798 0 255 255
1.61849 0.710469 -0.092798 0 255 255
1.62072 0.705381 -0.092798 0 255 255
1.60459 0.692373 -0.09175 0 255 255
1.59757 0.683401 -0.091225 0 255 255
1.63649 0.693974 -0.093322 0 255 255
1.68469 0.708178 -0.095944 0 255 255
1.68691 0.702882 -0.095944 0 255 255
1.67988 0.693767 -0.09542 0 255 255
1.68193 0.688779 -0.09542 0 255 255
1.70259 0.691003 -0.096468 0 255 255
1.69549 0.681925 -0.095944 0 255 255
1.68834 0.672897 -0.09542 0 255 255
1.68116 0.663922 -0.094895 0 255 255
1.68324 0.658637 -0.094895 0 255 255
1.67599 0.649736 -0.094371 0 255 255
1.70599 0.655209 -0.095944 0 255 255
1.68937 0.642744 -0.094895 0 255 255
1.70073 0.640956 -0.09542 0 255 255
1.68391 0.628918 -0.094371 0 255 255
1.67651 0.620161 -0.093847 0 255 255
1.6597 0.608021 -0.092798 0 255 255
1.64283 0.595992 -0.09175 0 255 255
1.62589 0.584076 -0.090701 0 255 255
1.61831 0.575618 -0.090177 0 255 255
1.62011 0.570532 -0.090177 0 255 255
1.6219 0.565439 -0.090177 0 255 255
1.62357 0.560624 -0.090177 0 255 255
1.62532 0.555521 -0.090177 0 255 255
1.6176 0.547212 -0.089652 0 255 255
1.62878 0.545298 -0.090177 0 255 255
1.63048 0.540178 -0.090177 0 255 255
1.63217 0.535053 -0.090177 0 255 255
1.63375 0.530208 -0.090177 0 255 255
1.61639 0.518968 -0.089128 0 255 255
1.62753 0.51691 -0.089652 0 255 255
1.63868 0.514787 -0.090177 0 255 255
1.63075 0.506673 -0.089652 0 255 255
1.62279 0.498615 -0.089128 0 255 255
1.60524 0.487708 -0.08808 0 255 255
1.60676 0.482662 -0.08808 0 255 255
1.60827 0.477613 -0.08808 0 255 255
1.61934 0.47537 -0.088604 0 255 255
1.61116 0.467779 -0.08808 0 255 255
1.61262 0.462716 -0.08808 0 255 255
1.59485 0.452198 -0.087031 0 255 255
1.58665 0.444492 -0.086507 0 255 255
1.57841 0.436841 -0.085982 0 255 255
1.59904 0.437148 -0.087031 0 255 255
1.65825 0.447741 -0.090177 0 255 255
5.5193 1.47167 -0.29989 0 255 255
7.92472 1.98173 -0.428864 0 255 255
7.9503 1.96161 -0.429912 0 255 255
7.96613 1.93898 -0.430437 0 255 255
7.96247 1.91162 -0.429912 0 255 255
5.8318 1.28541 -0.313521 0 255 255
5.90412 1.28191 -0.317191 0 255 255
5.85929 1.25291 -0.31457 0 255 255
5.89251 1.24067 -0.316143 0 255 255
5.8866 1.22013 -0.315619 0 255 255
5.81562 1.16841 -0.311424 0 255 255
5.81926 1.15013 -0.311424 0 255 255
5.84599 1.1173 -0.312473 0 255 255
5.81021 1.09155 -0.310376 0 255 255
5.8529 1.08054 -0.312473 0 255 255
5.91161 0.845557 -0.313521 0 255 255
5.94391 0.831131 -0.315094 0 255 255
6.07512 0.830025 -0.32191 0 255 255
6.09749 0.813578 -0.322959 0 255 255
6.14953 0.800868 -0.32558 0 255 255
8.98531 1.14148 -0.475525 0 255 255
8.98885 1.11325 -0.475525 0 255 255
8.9923 1.085 -0.475525 0 255 255
8.99567 1.05675 -0.475525 0 255 255
8.99876 1.03005 -0.475525 0 255 255
9.00196 1.00178 -0.475525 0 255 255
9.00506 0.973492 -0.475525 0 255 255
9.00807 0.945195 -0.475525 0 255 255
9.00106 0.915881 -0.475001 0 255 255
9.01383 0.88858 -0.475525 0 255 255
9.01658 0.860256 -0.475525 0 255 255
9.01924 0.831927 -0.475525 0 255 255
9.02181 0.803585 -0.475525 0 255 255
9.03424 0.776099 -0.476049 0 255 255
9.0365 0.749288 -0.476049 0 255 255
9.03881 0.720893 -0.476049 0 255 255
9.04115 0.690917 -0.476049 0 255 255
9.03332 0.661778 -0.475525 0 255 255
9.0452 0.635678 -0.476049 0 255 255
9.04716 0.607256 -0.476049 0 255 255
9.03905 0.578191 -0.475525 0 255 255
9.05079 0.550399 -0.476049 0 255 255
6.89027 0.375578 -0.36228 0 255 255
6.8615 0.352391 -0.360707 0 255 255
6.84262 0.32987 -0.359658 0 255 255
6.82362 0.308665 -0.35861 0 255 255
6.8046 0.286388 -0.357561 0 255 255
6.77553 0.263845 -0.355988 0 255 255
6.76634 0.242198 -0.355464 0 255 255
6.74711 0.220286 -0.354416 0 255 255
6.7278 0.198501 -0.353367 0 255 255
6.69844 0.176576 -0.351794 0 255 255
6.68898 0.155297 -0.35127 0 255 255
6.86915 0.137892 -0.360707 0 255 255
6.47046 0.09035 -0.339736 0 255 255
7.90887 0.060736 -0.415232 0 255 255
7.93898 0.036026 -0.416805 0 255 255
7.84918 0.010957 -0.412087 0 255 255
7.979 -0.013926 -0.418902 0 255 255
7.97892 -0.038993 -0.418902 0 255 255
7.98874 -0.064139 -0.419427 0 255 255
7.97851 -0.089125 -0.418902 0 255 255
7.98818 -0.114332 -0.419427 0 255 255
7.98778 -0.139427 -0.419427 0 255 255
7.99729 -0.164727 -0.419951 0 255 255
7.99673 -0.18985 -0.419951 0 255 255
7.9961 -0.214971 -0.419951 0 255 255
8.0054 -0.238993 -0.420475 0 255 255
8.01459 -0.264471 -0.420999 0 255 255
8.01372 -0.289648 -0.420999 0 255 255
8.0028 -0.314431 -0.420475 0 255 255
5.28722 -0.241016 -0.27787 0 255 255
5.26649 -0.256653 -0.276822 0 255 255
5.25568 -0.272679 -0.276297 0 255 255
5.24488 -0.287725 -0.275773 0 255 255
5.23398 -0.303623 -0.275249 0 255 255
5.22303 -0.319454 -0.274724 0 255 255
5.21204 -0.33522 -0.2742 0 255 255
5.20099 -0.350921 -0.273676 0 255 255
5.18991 -0.366555 -0.273152 0 255 255
5.17877 -0.382123 -0.272627 0 255 255
5.16759 -0.397624 -0.272103 0 255 255
5.1464 -0.412262 -0.271054 0 255 255
5.14508 -0.428428 -0.271054 0 255 255
5.12381 -0.442869 -0.270006 0 255 255
5.1224 -0.458964 -0.270006 0 255 255
5.11099 -0.474132 -0.269482 0 255 255
5.10947 -0.490186 -0.269482 0 255 255
5.09806 -0.504361 -0.268957 0 255 255
5.09645 -0.520374 -0.268957 0 255 255
5.07492 -0.534292 -0.267909 0 255 255
5.06329 -0.549155 -0.267384 0 255 255
5.05162 -0.563952 -0.26686 0 255 255
5.0399 -0.57868 -0.266336 0 255 255
5.02814 -0.59334 -0.265812 0 255 255
5.02625 -0.609133 -0.265812 0 255 255
5.00449 -0.622456 -0.264763 0 255 255
5.00251 -0.638175 -0.264763 0 255 255
4.99058 -0.652592 -0.264239 0 255 255
4.97861 -0.666942 -0.263714 0 255 255
4.96671 -0.680355 -0.26319 0 255 255
4.96455 -0.695955 -0.26319 0 255 255
4.95246 -0.710131 -0.262666 0 255 255
4.94032 -0.724238 -0.262142 0 255 255
4.92814 -0.738275 -0.261617 0 255 255
4.9258 -0.753753 -0.261617 0 255 255
4.91354 -0.767683 -0.261093 0 255 255
4.90124 -0.781543 -0.260569 0 255 255
4.88891 -0.795333 -0.260045 0 255 255
4.88638 -0.810688 -0.260045 0 255 255
4.86426 -0.821856 -0.258996 0 255 255
4.86166 -0.837133 -0.258996 0 255 255
4.859 -0.852402 -0.258996 0 255 255
4.84647 -0.865907 -0.258472 0 255 255
4.84373 -0.881128 -0.258472 0 255 255
4.84094 -0.896341 -0.258472 0 255 255
4.81847 -0.907846 -0.257423 0 255 255
4.81559 -0.92298 -0.257423 0 255 255
4.80287 -0.936193 -0.256899 0 255 255
4.7999 -0.951277 -0.256899 0 255 255
4.79689 -0.966352 -0.256899 0 255 255
4.8134 -0.985423 -0.257947 0 255 255
4.82983 -1.00461 -0.258996 0 255 255
4.86574 -1.02803 -0.261093 0 255 255
4.90154 -1.05169 -0.26319 0 255 255
4.93724 -1.07559 -0.265287 0 255 255
4.96328 -1.0967 -0.26686 0 255 255
4.99879 -1.12103 -0.268957 0 255 255
5.02425 -1.14425 -0.27053 0 255 255
5.05955 -1.16902 -0.272627 0 255 255
5.09495 -1.19313 -0.274724 0 255 255
5.14948 -1.22298 -0.27787 0 255 255
5.17474 -1.24617 -0.279443 0 255 255
5.2096 -1.27189 -0.28154 0 255 255
5.24435 -1.29785 -0.283637 0 255 255
5.30805 -1.33132 -0.287307 0 255 255
5.34256 -1.35783 -0.289404 0 255 255
5.37695 -1.38457 -0.291502 0 255 255
5.42089 -1.41406 -0.294123 0 255 255
5.46469 -1.44384 -0.296744 0 255 255
5.50837 -1.4739 -0.299366 0 255 255
5.5519 -1.50426 -0.301987 0 255 255
5.6052 -1.53656 -0.305133 0 255 255
5.63883 -1.56485 -0.30723 0 255 255
5.75887 -1.61766 -0.314046 0 255 255
5.87864 -1.67125 -0.320861 0 255 255
5.95013 -1.71179 -0.325056 0 255 255
5.99267 -1.74443 -0.327677 0 255 255
6.03506 -1.77736 -0.330298 0 255 255
9.35042 -2.78571 -0.512225 0 255 255
9.36075 -2.82083 -0.513273 0 255 255
9.36139 -2.85313 -0.513798 0 255 255
9.36192 -2.88547 -0.514322 0 255 255
9.36235 -2.91784 -0.514846 0 255 255
9.37218 -2.95324 -0.515895 0 255 255
3.95828 -1.26097 -0.218102 0 255 255
3.87826 -1.24891 -0.213908 0 255 255
3.94078 -1.28272 -0.217578 0 255 255
3.93674 -1.29509 -0.217578 0 255 255
3.92317 -1.3043 -0.217053 0 255 255
3.91905 -1.31662 -0.217053 0 255 255
3.9149 -1.32893 -0.217053 0 255 255
3.91094 -1.34054 -0.217053 0 255 255
3.89727 -1.34955 -0.216529 0 255 255
3.89301 -1.36179 -0.216529 0 255 255
3.89813 -1.37734 -0.217053 0 255 255
3.87497 -1.38286 -0.216005 0 255 255
3.88001 -1.39842 -0.216529 0 255 255
3.86621 -1.40718 -0.216005 0 255 255
3.86177 -1.41932 -0.216005 0 255 255
3.85729 -1.43145 -0.216005 0 255 255
3.84342 -1.44006 -0.21548 0 255 255
3.84822 -1.45566 -0.216005 0 255 255
3.84363 -1.46774 -0.216005 0 255 255
3.82968 -1.47622 -0.21548 0 255 255
3.83433 -1.49186 -0.216005 0 255 255
3.82962 -1.5039 -0.216005 0 255 255
3.8156 -1.51224 -0.21548 0 255 255
3.8201 -1.52793 -0.216005 0 255 255
3.80602 -1.53619 -0.21548 0 255 255
3.80118 -1.54814 -0.21548 0 255 255
3.79629 -1.56007 -0.21548 0 255 255
3.8006 -1.57581 -0.216005 0 255 255
3.78642 -1.58389 -0.21548 0 255 255
3.7909 -1.599 -0.216005 0 255 255
3.77667 -1.60699 -0.21548 0 255 255
3.77132 -1.61951 -0.21548 0 255 255
3.76622 -1.63135 -0.21548 0 255 255
3.76107 -1.64317 -0.21548 0 255 255
3.75589 -1.65498 -0.21548 0 255 255
3.75067 -1.66677 -0.21548 0 255 255
3.74542 -1.67854 -0.21548 0 255 255
3.74042 -1.68965 -0.21548 0 255 255
3.73509 -1.70139 -0.21548 0 255 255
3.72973 -1.71312 -0.21548 0 255 255
3.72433 -1.72483 -0.21548 0 255 255
3.71889 -1.73652 -0.21548 0 255 255
3.71342 -1.74819 -0.21548 0 255 255
3.71693 -1.76413 -0.216005 0 255 255
3.70236 -1.77149 -0.21548 0 255 255
3.69678 -1.78311 -0.21548 0 255 255
3.68218 -1.79035 -0.214956 0 255 255
3.6855 -1.80631 -0.21548 0 255 255
3.67981 -1.81788 -0.21548 0 255 255
3.67408 -1.82943 -0.21548 0 255 255
3.66831 -1.84096 -0.21548 0 255 255
3.66251 -1.85248 -0.21548 0 255 255
3.65668 -1.86397 -0.21548 0 255 255
3.65113 -1.87481 -0.21548 0 255 255
3.64522 -1.88628 -0.21548 0 255 255
3.63928 -1.89772 -0.21548 0 255 255
3.64214 -1.91379 -0.216005 0 255 255
3.62728 -1.92055 -0.21548 0 255 255
3.62123 -1.93193 -0.21548 0 255 255
3.61514 -1.9433 -0.21548 0 255 255
3.60902 -1.95465 -0.21548 0 255 255
3.61163 -1.97076 -0.216005 0 255 255
3.60542 -1.9821 -0.216005 0 255 255
3.59044 -1.98857 -0.21548 0 255 255
9.40171 -5.28463 -0.566226 0 255 255
9.53279 -5.39779 -0.575139 0 255 255
9.61987 -5.48708 -0.58143 0 255 255
9.61991 -5.52722 -0.582479 0 255 255
5.73038 -3.31644 -0.3476 0 255 255
5.6768 -3.30928 -0.344978 0 255 255
5.64915 -3.31699 -0.34393 0 255 255
5.6387 -3.33472 -0.34393 0 255 255
5.53382 -3.2962 -0.338163 0 255 255
5.0867 -3.05157 -0.311424 0 255 255
5.01726 -3.03138 -0.307754 0 255 255
4.96506 -3.02118 -0.305133 0 255 255
4.91297 -3.01067 -0.302511 0 255 255
4.8525 -2.99462 -0.299366 0 255 255
4.81762 -2.99404 -0.297793 0 255 255
4.76586 -2.98267 -0.295171 0 255 255
4.73112 -2.98165 -0.293599 0 255 255
4.66271 -2.95905 -0.289929 0 255 255
4.61973 -2.95217 -0.287832 0 255 255
4.57685 -2.94506 -0.285734 0 255 255
4.5178 -2.92605 -0.282589 0 255 255
4.45839 -2.9075 -0.279443 0 255 255
4.42419 -2.90505 -0.27787 0 255 255
4.37339 -2.89139 -0.275249 0 255 255
4.33935 -2.88852 -0.273676 0 255 255
4.28878 -2.87434 -0.271054 0 255 255
4.24661 -2.86546 -0.268957 0 255 255
4.20455 -2.85634 -0.26686 0 255 255
4.15434 -2.84134 -0.264239 0 255 255
4.12072 -2.83739 -0.262666 0 255 255
4.08716 -2.83325 -0.261093 0 255 255
4.04549 -2.82322 -0.258996 0 255 255
4.02025 -2.82443 -0.257947 0 255 255
3.85645 -2.72749 -0.247986 0 255 255
3.93735 -2.8033 -0.253753 0 255 255
3.98444 -2.87473 -0.257947 0 255 255
3.98347 -2.8931 -0.258472 0 255 255
3.95824 -2.89381 -0.257423 0 255 255
3.94913 -2.90623 -0.257423 0 255 255
3.93196 -2.91268 -0.256899 0 255 255
3.92279 -2.92502 -0.256899 0 255 255
3.91358 -2.93733 -0.256899 0 255 255
3.90433 -2.94961 -0.256899 0 255 255
3.8871 -2.95582 -0.256375 0 255 255
3.87779 -2.96801 -0.256375 0 255 255
3.86054 -2.97409 -0.25585 0 255 255
3.85907 -2.99232 -0.256375 0 255 255
3.84965 -3.00443 -0.256375 0 255 255
3.83234 -3.01034 -0.25585 0 255 255
3.82286 -3.02236 -0.25585 0 255 255
3.80553 -3.02814 -0.255326 0 255 255
3.7882 -3.03384 -0.254802 0 255 255
3.78643 -3.05199 -0.255326 0 255 255
3.77682 -3.06387 -0.255326 0 255 255
3.75944 -3.06941 -0.254802 0 255 255
3.75032 -3.08055 -0.254802 0 255 255
3.73293 -3.08595 -0.254277 0 255 255
3.72267 -3.09831 -0.254277 0 255 255
3.71292 -3.10999 -0.254277 0 255 255
3.6955 -3.11521 -0.253753 0 255 255
3.68569 -3.1268 -0.253753 0 255 255
3.6764 -3.13772 -0.253753 0 255 255
3.65895 -3.14275 -0.253229 0 255 255
3.6415 -3.1477 -0.252705 0 255 255
3.63913 -3.16568 -0.253229 0 255 255
3.62917 -3.17709 -0.253229 0 255 255
3.61167 -3.18188 -0.252705 0 255 255
3.60166 -3.19321 -0.252705 0 255 255
3.57671 -3.19121 -0.251656 0 255 255
3.56666 -3.20243 -0.251656 0 255 255
3.55659 -3.21362 -0.251656 0 255 255
3.54647 -3.22478 -0.251656 0 255 255
3.52896 -3.22916 -0.251132 0 255 255
3.5188 -3.24023 -0.251132 0 255 255
3.5086 -3.25127 -0.251132 0 255 255
3.49106 -3.25547 -0.250607 0 255 255
3.48082 -3.26642 -0.250607 0 255 255
3.47054 -3.27734 -0.250607 0 255 255
3.46023 -3.28823 -0.250607 0 255 255
3.44988 -3.29908 -0.250607 0 255 255
3.4395 -3.3099 -0.250607 0 255 255
3.42191 -3.31374 -0.250083 0 255 255
3.41148 -3.32448 -0.250083 0 255 255
3.40102 -3.33518 -0.250083 0 255 255
3.39053 -3.34585 -0.250083 0 255 255
3.38 -3.35648 -0.250083 0 255 255
3.36237 -3.36002 -0.249559 0 255 255
3.35884 -3.37765 -0.250083 0 255 255
3.34821 -3.38819 -0.250083 0 255 255
3.33755 -3.39869 -0.250083 0 255 255
3.32686 -3.40916 -0.250083 0 255 255
3.30918 -3.41243 -0.249559 0 255 255
3.29151 -3.41561 -0.249035 0 255 255
3.28767 -3.43315 -0.249559 0 255 255
3.27687 -3.44346 -0.249559 0 255 255
3.26604 -3.45374 -0.249559 0 255 255
3.25517 -3.46398 -0.249559 0 255 255
3.24427 -3.47419 -0.249559 0 255 255
3.23334 -3.48437 -0.249559 0 255 255
3.22238 -3.49451 -0.249559 0 255 255
3.20464 -3.49725 -0.249035 0 255 255
3.19364 -3.5073 -0.249035 0 255 255
3.1893 -3.52472 -0.249559 0 255 255
3.17821 -3.53472 -0.249559 0 255 255
3.16044 -3.53725 -0.249035 0 255 255
3.14931 -3.54716 -0.249035 0 255 255
3.14476 -3.56452 -0.249559 0 255 255
3.12696 -3.56687 -0.249035 0 255 255
3.1223 -3.58421 -0.249559 0 255 255
3.10449 -3.58645 -0.249035 0 255 255
3.09321 -3.59618 -0.249035 0 255 255
3.08189 -3.60589 -0.249035 0 255 255
3.07055 -3.61555 -0.249035 0 255 255
3.05918 -3.62518 -0.249035 0 255 255
3.04777 -3.63477 -0.249035 0 255 255
3.03634 -3.64433 -0.249035 0 255 255
3.00577 -3.63077 -0.247462 0 255 255
2.96897 -3.60935 -0.245365 0 255 255
2.9513 -3.61092 -0.24484 0 255 255
2.93365 -3.61243 -0.244316 0 255 255
2.92228 -3.62162 -0.244316 0 255 255
2.91089 -3.63079 -0.244316 0 255 255
2.89947 -3.63991 -0.244316 0 255 255
2.89422 -3.65684 -0.24484 0 255 255
2.88272 -3.66591 -0.24484 0 255 255
2.86504 -3.66708 -0.244316 0 255 255
2.8535 -3.67606 -0.244316 0 255 255
2.84194 -3.68501 -0.244316 0 255 255
2.83642 -3.70185 -0.24484 0 255 255
2.81873 -3.70279 -0.244316 0 255 255
2.80708 -3.71163 -0.244316 0 255 255
2.80141 -3.72841 -0.24484 0 255 255
2.78968 -3.7372 -0.24484 0 255 255
2.77793 -3.74594 -0.24484 0 255 255
2.76022 -3.74661 -0.244316 0 255 255
2.74844 -3.75526 -0.244316 0 255 255
2.73663 -3.76388 -0.244316 0 255 255
2.73063 -3.78055 -0.24484 0 255 255
2.71292 -3.781 -0.244316 0 255 255
2.69524 -3.78137 -0.243792 0 255 255
2.68334 -3.78982 -0.243792 0 255 255
2.67142 -3.79823 -0.243792 0 255 255
2.65948 -3.80661 -0.243792 0 255 255
2.64751 -3.81494 -0.243792 0 255 255
2.63551 -3.82324 -0.243792 0 255 255
2.61784 -3.82326 -0.243267 0 255 255
2.61143 -3.83972 -0.243792 0 255 255
2.59377 -3.83963 -0.243267 0 255 255
2.58169 -3.84776 -0.243267 0 255 255
2.56959 -3.85585 -0.243267 0 255 255
2.55195 -3.85558 -0.242743 0 255 255
2.5508 -3.88027 -0.243792 0 255 255
2.52768 -3.87154 -0.242743 0 255 255
2.52094 -3.88784 -0.243267 0 255 255
2.50871 -3.89574 -0.243267 0 255 255
2.49646 -3.9036 -0.243267 0 255 255
2.48418 -3.91143 -0.243267 0 255 255
2.4712 -3.91964 -0.243267 0 255 255
2.45887 -3.92739 -0.243267 0 255 255
2.42366 -3.92576 -0.242219 0 255 255
2.41653 -3.94187 -0.242743 0 255 255
2.33663 -3.83855 -0.235928 0 255 255
2.3769 -3.93092 -0.24117 0 255 255
3.5129 -5.89294 -0.360183 0 255 255
3.5198 -5.94692 -0.362804 0 255 255
3.38675 -5.80503 -0.352843 0 255 255
3.36849 -5.81564 -0.352843 0 255 255
3.35021 -5.82619 -0.352843 0 255 255
3.32097 -5.81992 -0.351794 0 255 255
3.30759 -5.83902 -0.352318 0 255 255
3.29025 -5.8488 -0.352318 0 255 255
3.25726 -5.83295 -0.350746 0 255 255
3.23892 -5.84316 -0.350746 0 255 255
3.22536 -5.86205 -0.35127 0 255 255
3.20214 -5.86339 -0.350746 0 255 255
3.16467 -5.83831 -0.348648 0 255 255
3.15002 -5.85756 -0.349173 0 255 255
3.1363 -5.87624 -0.349697 0 255 255
3.12718 -5.90372 -0.350746 0 255 255
3.11326 -5.92235 -0.35127 0 255 255
3.09926 -5.94096 -0.351794 0 255 255
3.09894 -5.98614 -0.353891 0 255 255
3.08468 -6.00472 -0.354416 0 255 255
3.08395 -6.04997 -0.356513 0 255 255
3.07394 -6.07745 -0.357561 0 255 255
3.07275 -6.12278 -0.359658 0 255 255
3.07575 -6.1771 -0.36228 0 255 255
3.07845 -6.2315 -0.364901 0 255 255
3.07204 -6.26804 -0.366474 0 255 255
3.05233 -6.27766 -0.366474 0 255 255
3.04561 -6.31421 -0.368047 0 255 255
3.03869 -6.35077 -0.36962 0 255 255
3.01016 -6.34224 -0.368571 0 255 255
2.9647 -6.29745 -0.365425 0 255 255
2.95335 -6.32483 -0.366474 0 255 255
2.4903 -5.55933 -0.319813 0 255 255
2.48093 -5.58538 -0.320861 0 255 255
2.47142 -5.61142 -0.32191 0 255 255
2.46577 -5.64661 -0.323483 0 255 255
2.45596 -5.67266 -0.324531 0 255 255
2.44994 -5.70788 -0.326104 0 255 255
2.4359 -5.72473 -0.326629 0 255 255
2.42179 -5.74156 -0.327153 0 255 255
2.41529 -5.77678 -0.328726 0 255 255
2.40478 -5.80279 -0.329774 0 255 255
2.39033 -5.81955 -0.330298 0 255 255
2.37957 -5.84553 -0.331347 0 255 255
2.3724 -5.88076 -0.33292 0 255 255
2.36504 -5.91601 -0.334493 0 255 255
2.35379 -5.94198 -0.335541 0 255 255
2.33876 -5.95864 -0.336066 0 255 255
2.32365 -5.97526 -0.33659 0 255 255
2.32536 -6.03885 -0.339736 0 255 255
2.30993 -6.05546 -0.34026 0 255 255
2.29796 -6.08137 -0.341308 0 255 255
2.28934 -6.11661 -0.342881 0 255 255
2.27359 -6.13314 -0.343406 0 255 255
2.26463 -6.16837 -0.344978 0 255 255
2.24865 -6.18484 -0.345503 0 255 255
2.24613 -6.23886 -0.348124 0 255 255
2.22652 -6.24588 -0.348124 0 255 255
2.16746 -6.20318 -0.344978 0 255 255
2.17408 -6.28546 -0.349173 0 255 255
2.15432 -6.29226 -0.349173 0 255 255
2.80439 -8.27571 -0.458748 0 255 255
2.76251 -8.23714 -0.456126 0 255 255
2.72718 -8.21735 -0.454554 0 255 255
2.69512 -8.2069 -0.453505 0 255 255
2.66006 -8.18683 -0.451932 0 255 255
2.62211 -8.15712 -0.449835 0 255 255
2.59647 -8.16532 -0.449835 0 255 255
2.56781 -8.16391 -0.449311 0 255 255
2.54215 -8.17193 -0.449311 0 255 255
2.5194 -8.18943 -0.449835 0 255 255
2.38735 -7.93733 -0.435155 0 255 255
2.36525 -7.95436 -0.435679 0 255 255
2.96545 -10.0887 -0.55207 0 255 255
2.87801 -9.90619 -0.541585 0 255 255
2.86994 -10.0021 -0.546303 0 255 255
2.74861 -9.69399 -0.529002 0 255 255
2.8205 -10.068 -0.548925 0 255 255
1.86457 -6.73711 -0.366998 0 255 255
1.83549 -6.71404 -0.365425 0 255 255
1.80919 -6.70049 -0.364377 0 255 255
1.78157 -6.67688 -0.362804 0 255 255
1.75804 -6.67279 -0.36228 0 255 255
1.73339 -6.66892 -0.361755 0 255 255
1.70995 -6.66466 -0.361231 0 255 255
1.68901 -6.67 -0.361231 0 255 255
1.6632 -6.65589 -0.360183 0 255 255
1.64228 -6.66109 -0.360183 0 255 255
1.61899 -6.65651 -0.359658 0 255 255
1.59923 -6.66128 -0.359658 0 255 255
1.576 -6.65656 -0.359134 0 255 255
1.55391 -6.66175 -0.359134 0 255 255
1.53074 -6.65686 -0.35861 0 255 255
1.50645 -6.65216 -0.358086 0 255 255
1.48772 -6.66661 -0.35861 0 255 255
1.46579 -6.66124 -0.358086 0 255 255
1.44485 -6.66581 -0.358086 0 255 255
1.39678 -6.64544 -0.356513 0 255 255
1.36983 -6.62046 -0.35494 0 255 255
1.35898 -6.67366 -0.357561 0 255 255
1.33801 -6.67789 -0.357561 0 255 255
1.31703 -6.68207 -0.357561 0 255 255
1.29603 -6.68617 -0.357561 0 255 255
1.27315 -6.6804 -0.357037 0 255 255
1.25399 -6.69418 -0.357561 0 255 255
1.23295 -6.69809 -0.357561 0 255 255
1.21191 -6.70193 -0.357561 0 255 255
1.19085 -6.7057 -0.357561 0 255 255
1.16977 -6.70941 -0.357561 0 255 255
1.147 -6.70321 -0.357037 0 255 255
1.12759 -6.71663 -0.357561 0 255 255
1.10811 -6.72999 -0.358086 0 255 255
1.08696 -6.73344 -0.358086 0 255 255
1.06424 -6.72696 -0.357561 0 255 255
1.04616 -6.75 -0.35861 0 255 255
1.02645 -6.76313 -0.359134 0 255 255
1.00666 -6.7762 -0.359658 0 255 255
0.985373 -6.77933 -0.359658 0 255 255
0.968286 -6.81205 -0.361231 0 255 255
0.972991 -7.00299 -0.371193 0 255 255
1.38842 -10.2421 -0.542633 0 255 255
1.08893 -8.22682 -0.435679 0 255 255
1.32404 -10.2506 -0.542633 0 255 255
1.29184 -10.2547 -0.542633 0 255 255
1.25961 -10.2587 -0.542633 0 255 255
1.22619 -10.2527 -0.542109 0 255 255
1.19513 -10.2664 -0.542633 0 255 255
0.241949 -2.26397 -0.119537 0 255 255
0.230715 -2.22499 -0.117439 0 255 255
0.998509 -10.2573 -0.54106 0 255 255
0.955045 -10.1411 -0.534769 0 255 255
0.47886 -5.45147 -0.287307 0 255 255
0.73971 -10.2692 -0.540536 0 255 255
0.707444 -10.2715 -0.540536 0 255 255
0.676482 -10.2936 -0.541585 0 255 255
0.643517 -10.2857 -0.54106 0 255 255
0.612384 -10.3076 -0.542109 0 255 255
0.58 -10.3095 -0.542109 0 255 255
0.547078 -10.3013 -0.541585 0 255 255
0.41506 -8.30818 -0.436728 0 255 255
0.09888 -2.26472 -0.119012 0 255 255
0.091765 -2.26502 -0.119012 0 255 255
0.086513 -2.31519 -0.121634 0 255 255
0.079239 -2.31545 -0.121634 0 255 255
0.070724 -2.27577 -0.119537 0 255 255
0.030393 -1.08808 -0.057147 0 255 255
0.025737 -1.03825 -0.054525 0 255 255
0.021395 -0.988407 -0.051904 0 255 255
0.018659 -1.00844 -0.052953 0 255 255
0.01486 -0.978539 -0.05138 0 255 255
0.011906 -0.988567 -0.051904 0 255 255
0.008444 -0.948656 -0.049807 0 255 255
0.005522 -0.958664 -0.050331 0 255 255
0.00251 -0.958676 -0.050331 0 255 255
-0.000502 -0.95868 -0.050331 0 255 255
-0.00355 -0.968659 -0.050855 0 255 255
-0.006526 -0.958657 -0.050331 0 255 255
-0.009438 -0.948646 -0.049807 0 255 255
-0.012549 -0.958598 -0.050331 0 255 255
-0.015722 -0.968538 -0.050855 0 255 255
-0.018571 -0.9585 -0.050331 0 255 255
-0.021807 -0.96842 -0.050855 0 255 255
-0.02485 -0.968347 -0.050855 0 255 255
-0.027604 -0.958282 -0.050331 0 255 255
-0.030933 -0.968172 -0.050855 0 255 255
-0.033975 -0.96807 -0.050855 0 255 255
-0.037016 -0.967958 -0.050855 0 255 255
-0.040057 -0.967837 -0.050855 0 255 255
-0.042653 -0.95773 -0.050331 0 255 255
-0.046613 -0.977541 -0.05138 0 255 255
-0.049684 -0.97739 -0.05138 0 255 255
-0.052924 -0.97722 -0.05138 0 255 255
-0.055994 -0.977049 -0.05138 0 255 255
-0.058461 -0.9669 -0.050855 0 255 255
-0.061498 -0.966712 -0.050855 0 255 255
-0.0652 -0.976478 -0.05138 0 255 255
-0.068267 -0.976268 -0.05138 0 255 255
-0.072062 -0.986009 -0.051904 0 255 255
-0.0744 -0.97582 -0.05138 0 255 255
-0.077465 -0.975581 -0.05138 0 255 255
-0.081351 -0.985286 -0.051904 0 255 255
-0.083593 -0.975075 -0.05138 0 255 255
-0.086656 -0.974808 -0.05138 0 255 255
-0.090634 -0.984475 -0.051904 0 255 255
-0.09278 -0.974244 -0.05138 0 255 255
-0.096818 -0.983886 -0.051904 0 255 255
-0.098899 -0.973642 -0.05138 0 255 255
-0.100917 -0.963395 -0.050855 0 255 255
-0.105015 -0.973002 -0.05138 0 255 255
-0.108071 -0.972667 -0.05138 0 255 255
-0.111126 -0.972323 -0.05138 0 255 255
-0.115345 -0.981887 -0.051904 0 255 255
-0.117233 -0.971605 -0.05138 0 255 255
-0.120285 -0.971232 -0.05138 0 255 255
-0.124594 -0.980756 -0.051904 0 255 255
-0.127846 -0.980337 -0.051904 0 255 255
-0.130925 -0.979931 -0.051904 0 255 255
-0.134003 -0.979515 -0.051904 0 255 255
-0.135695 -0.969199 -0.05138 0 255 255
-0.139984 -0.978678 -0.051904 0 255 255
-0.141613 -0.968352 -0.05138 0 255 255
-0.14613 -0.977779 -0.051904 0 255 255
-0.149201 -0.977315 -0.051904 0 255 255
-0.152271 -0.976842 -0.051904 0 255 255
-0.156908 -0.986221 -0.052428 0 255 255
-0.160005 -0.985723 -0.052428 0 255 255
-0.16147 -0.975363 -0.051904 0 255 255
-0.164704 -0.974822 -0.051904 0 255 255
-0.167766 -0.9743 -0.051904 0 255 255
-0.1691 -0.963932 -0.05138 0 255 255
-0.17564 -0.983057 -0.052428 0 255 255
-0.178728 -0.982501 -0.052428 0 255 255
-0.179995 -0.972115 -0.051904 0 255 255
-0.183048 -0.971545 -0.051904 0 255 255
-0.18798 -0.980773 -0.052428 0 255 255
-0.189149 -0.970375 -0.051904 0 255 255
-0.19608 -0.989368 -0.052953 0 255 255
-0.197215 -0.978957 -0.052428 0 255 255
-0.200289 -0.978333 -0.052428 0 255 255
-0.203362 -0.977699 -0.052428 0 255 255
-0.210561 -0.996596 -0.053477 0 255 255
-0.211424 -0.986203 -0.052953 0 255 255
-0.214521 -0.985534 -0.052953 0 255 255
-0.217788 -0.984817 -0.052953 0 255 255
-0.218694 -0.974384 -0.052428 0 255 255
-0.223971 -0.983429 -0.052953 0 255 255
-0.22706 -0.982721 -0.052953 0 255 255
-0.230146 -0.982002 -0.052953 0 255 255
-0.23323 -0.981275 -0.052953 0 255 255
-0.238651 -0.990245 -0.053477 0 255 255
-0.241761 -0.989491 -0.053477 0 255 255
-0.240067 -0.96934 -0.052428 0 255 255
-0.245542 -0.978266 -0.052953 0 255 255
-0.248614 -0.97749 -0.052953 0 255 255
-0.251684 -0.976704 -0.052953 0 255 255
-0.254751 -0.975909 -0.052953 0 255 255
-0.260368 -0.984758 -0.053477 0 255 255
-0.266044 -0.993582 -0.054001 0 255 255
-0.269164 -0.992741 -0.054001 0 255 255
-0.277568 -1.01115 -0.05505 0 255 255
-0.275396 -0.99103 -0.054001 0 255 255
-0.281212 -0.999773 -0.054525 0 255 255
-0.284351 -0.998885 -0.054525 0 255 255
-0.284724 -0.988391 -0.054001 0 255 255
-0.290622 -0.997079 -0.054525 0 255 255
-0.293753 -0.996161 -0.054525 0 255 255
-0.294026 -0.985663 -0.054001 0 255 255
-0.297121 -0.984735 -0.054001 0 255 255
-0.303128 -0.993348 -0.054525 0 255 255
-0.306248 -0.992391 -0.054525 0 255 255
-0.312338 -1.00096 -0.05505 0 255 255
-0.312477 -0.990447 -0.054525 0 255 255
-0.315587 -0.98946 -0.054525 0 255 255
-0.318866 -0.988408 -0.054525 0 255 255
-0.325066 -0.996896 -0.05505 0 255 255
-0.32507 -0.986385 -0.054525 0 255 255
-0.334478 -1.00431 -0.055574 0 255 255
-0.334447 -0.993788 -0.05505 0 255 255
-0.340782 -1.00219 -0.055574 0 255 255
-0.347173 -1.01056 -0.056098 0 255 255
-0.347072 -1.00003 -0.055574 0 255 255
-0.353516 -1.00836 -0.056098 0 255 255
-0.353349 -0.997826 -0.055574 0 255 255
-0.359845 -1.00611 -0.056098 0 255 255
-0.363004 -1.00498 -0.056098 0 255 255
-0.366159 -1.00383 -0.056098 0 255 255
-0.369311 -1.00268 -0.056098 0 255 255
-0.37594 -1.01087 -0.056623 0 255 255
-0.375604 -1.00034 -0.056098 0 255 255
-0.385824 -1.01783 -0.057147 0 255 255
-0.389019 -1.01661 -0.057147 0 255 255
-0.392211 -1.01538 -0.057147 0 255 255
-0.395399 -1.01415 -0.057147 0 255 255
-0.40224 -1.02219 -0.057671 0 255 255
-0.405449 -1.02092 -0.057671 0 255 255
-0.408655 -1.01964 -0.057671 0 255 255
-0.411856 -1.01836 -0.057671 0 255 255
-0.419006 -1.02623 -0.058195 0 255 255
-0.418424 -1.01567 -0.057671 0 255 255
-0.421612 -1.01436 -0.057671 0 255 255
-0.432521 -1.03145 -0.05872 0 255 255
-0.427977 -1.01169 -0.057671 0 255 255
-0.435073 -1.01952 -0.058195 0 255 255
-0.438274 -1.01815 -0.058195 0 255 255
-0.449425 -1.03509 -0.059244 0 255 255
-0.448669 -1.02452 -0.05872 0 255 255
-0.45592 -1.03224 -0.059244 0 255 255
-0.44697 -1.00344 -0.057671 0 255 255
-0.466488 -1.03847 -0.059768 0 255 255
-0.465628 -1.0279 -0.059244 0 255 255
-0.468855 -1.02643 -0.059244 0 255 255
-0.476255 -1.03403 -0.059768 0 255 255
-0.483707 -1.04158 -0.060293 0 255 255
-0.486977 -1.04006 -0.060293 0 255 255
-0.490242 -1.03852 -0.060293 0 255 255
-0.493502 -1.03698 -0.060293 0 255 255
-0.496757 -1.03542 -0.060293 0 255 255
-0.504356 -1.04285 -0.060817 0 255 255
-0.498877 -1.0233 -0.059768 0 255 255
-0.515302 -1.04862 -0.061341 0 255 255
-0.514162 -1.03805 -0.060817 0 255 255
-0.489273 -1.02948 -0.019591 0 255 255
-0.496825 -1.03695 -0.019763 0 255 255
-0.50008 -1.03539 -0.019763 0 255 255
-0.512084 -1.05179 -0.020107 0 255 255
-0.506576 -1.03223 -0.019763 0 255 255
-0.51425 -1.03959 -0.019935 0 255 255
-0.517513 -1.03797 -0.019935 0 255 255
-0.516282 -1.02741 -0.019763 0 255 255
-0.524025 -1.0347 -0.019935 0 255 255
-0.527273 -1.03305 -0.019935 0 255 255
-0.530515 -1.03138 -0.019935 0 255 255
-0.533753 -1.02971 -0.019935 0 255 255
-0.541614 -1.03689 -0.020107 0 255 255
-0.544869 -1.03519 -0.020107 0 255 255
-0.552804 -1.0423 -0.020279 0 255 255
-0.556075 -1.04056 -0.020279 0 255 255
-0.568822 -1.05642 -0.020622 0 255 255
-0.562602 -1.03705 -0.020279 0 255 255
-0.570653 -1.04405 -0.020451 0 255 255
-0.578753 -1.05101 -0.020622 0 255 255
-0.582052 -1.04919 -0.020622 0 255 255
-0.590223 -1.05608 -0.020794 0 255 255
-0.593538 -1.05422 -0.020794 0 255 255
-0.596847 -1.05235 -0.020794 0 255 255
-0.144917 -0.215822 -0.004468 0 255 255
-0.145594 -0.215366 -0.004468 0 255 255
-0.157522 -0.231438 -0.004812 0 255 255
-0.152596 -0.222694 -0.00464 0 255 255
-0.170328 -0.246904 -0.005156 0 255 255
-0.188213 -0.271005 -0.005671 0 255 255
-0.177605 -0.254024 -0.005327 0 255 255
-0.184157 -0.261641 -0.005499 0 255 255
-0.190759 -0.269219 -0.005671 0 255 255
-0.179991 -0.252339 -0.005327 0 255 255
-0.186615 -0.259894 -0.005499 0 255 255
-0.181573 -0.251203 -0.005327 0 255 255
-0.182362 -0.250631 -0.005327 0 255 255
-0.17724 -0.24199 -0.005156 0 255 255
-0.177999 -0.241432 -0.005156 0 255 255
-0.178757 -0.240872 -0.005156 0 255 255
-0.173529 -0.232299 -0.004984 0 255 255
-0.174258 -0.231753 -0.004984 0 255 255
-0.162917 -0.215259 -0.00464 0 255 255
-0.169652 -0.2227 -0.004812 0 255 255
-0.182518 -0.238035 -0.005156 0 255 255
-0.183265 -0.23746 -0.005156 0 255 255
-0.171743 -0.221091 -0.004812 0 255 255
-0.141644 -0.181166 -0.003953 0 255 255
-0.148396 -0.188578 -0.004124 0 255 255
-0.148988 -0.188111 -0.004124 0 255 255
-0.149578 -0.187642 -0.004124 0 255 255
-0.150167 -0.187171 -0.004124 0 255 255
-0.157035 -0.194477 -0.004296 0 255 255
-0.163951 -0.201742 -0.004468 0 255 255
-0.158254 -0.193487 -0.004296 0 255 255
-0.165216 -0.200708 -0.004468 0 255 255
-0.172224 -0.207888 -0.00464 0 255 255
-0.140862 -0.168948 -0.003781 0 255 255
-0.160673 -0.191483 -0.004296 0 255 255
-0.174176 -0.206255 -0.00464 0 255 255
-0.174823 -0.205707 -0.00464 0 255 255
-0.188466 -0.220354 -0.004984 0 255 255
-0.189157 -0.21976 -0.004984 0 255 255
-0.1833 -0.211608 -0.004812 0 255 255
-0.177394 -0.203494 -0.00464 0 255 255
-0.204408 -0.233 -0.005327 0 255 255
-0.211756 -0.239852 -0.005499 0 255 255
-0.205868 -0.231711 -0.005327 0 255 255
-0.206595 -0.231063 -0.005327 0 255 255
-0.220695 -0.245279 -0.005671 0 255 255
-0.234886 -0.259407 -0.006015 0 255 255
-0.2357 -0.258668 -0.006015 0 255 255
-0.243269 -0.265296 -0.006187 0 255 255
-0.244101 -0.26453 -0.006187 0 255 255
-0.258539 -0.278415 -0.00653 0 255 255
-0.259412 -0.277602 -0.00653 0 255 255
-0.260283 -0.276786 -0.00653 0 255 255
-0.268023 -0.283229 -0.006702 0 255 255
-0.268912 -0.282385 -0.006702 0 255 255
-0.269798 -0.281539 -0.006702 0 255 255
-0.277621 -0.287887 -0.006874 0 255 255
-0.278524 -0.287014 -0.006874 0 255 255
-0.279425 -0.286137 -0.006874 0 255 255
-0.280322 -0.285258 -0.006874 0 255 255
-0.281217 -0.284376 -0.006874 0 255 255
-0.296214 -0.297666 -0.007218 0 255 255
-0.297148 -0.296734 -0.007218 0 255 255
-0.305176 -0.302841 -0.00739 0 255 255
-0.299007 -0.294861 -0.007218 0 255 255
-0.307073 -0.300918 -0.00739 0 255 255
-0.322343 -0.313903 -0.007733 0 255 255
-0.330513 -0.319842 -0.007905 0 255 255
-0.324309 -0.311872 -0.007733 0 255 255
-0.339744 -0.324667 -0.008077 0 255 255
-0.333512 -0.316713 -0.007905 0 255 255
-0.349049 -0.329388 -0.008249 0 255 255
-0.357376 -0.335129 -0.008421 0 255 255
-0.373057 -0.347638 -0.008765 0 255 255
-0.381483 -0.353257 -0.008936 0 255 255
-0.404664 -0.372368 -0.009452 0 255 255
-0.41321 -0.377842 -0.009624 0 255 255
-0.429195 -0.38999 -0.009968 0 255 255
-0.422997 -0.381939 -0.009796 0 255 255
-0.446451 -0.400718 -0.010311 0 255 255
-0.447708 -0.399314 -0.010311 0 255 255
-0.463925 -0.411169 -0.010655 0 255 255
-0.472718 -0.416317 -0.010827 0 255 255
-0.474096 -0.414748 -0.010827 0 255 255
-0.467851 -0.406696 -0.010655 0 255 255
-0.46156 -0.398689 -0.010483 0 255 255
-0.46281 -0.397237 -0.010483 0 255 255
-0.456448 -0.389293 -0.010311 0 255 255
-0.472924 -0.400785 -0.010655 0 255 255
-0.436805 -0.334084 -0.009452 0 255 255
-0.421931 -0.320611 -0.009108 0 255 255
-0.422936 -0.319284 -0.009108 0 255 255
-0.431936 -0.323953 -0.00928 0 255 255
-0.416916 -0.310646 -0.008936 0 255 255
-0.41789 -0.309335 -0.008936 0 255 255
-0.426915 -0.313944 -0.009108 0 255 255
-0.427899 -0.312601 -0.009108 0 255 255
-0.428879 -0.311256 -0.009108 0 255 255
-0.429854 -0.309907 -0.009108 0 255 255
-0.414568 -0.296911 -0.008765 0 255 255
-0.423646 -0.301404 -0.008936 0 255 255
-0.416426 -0.294301 -0.008765 0 255 255
-0.400982 -0.281501 -0.008421 0 255 255
-0.401864 -0.28024 -0.008421 0 255 255
-0.402742 -0.278976 -0.008421 0 255 255
-0.39538 -0.272042 -0.008249 0 255 255
-0.404487 -0.27644 -0.008421 0 255 255
-0.405354 -0.275168 -0.008421 0 255 255
-0.397879 -0.268373 -0.008249 0 255 255
-0.39872 -0.267122 -0.008249 0 255 255
-0.407882 -0.271407 -0.008421 0 255 255
-0.400391 -0.264611 -0.008249 0 255 255
-0.40122 -0.263352 -0.008249 0 255 255
-0.418797 -0.273011 -0.008593 0 255 255
-0.428046 -0.277127 -0.008765 0 255 255
-0.428915 -0.275781 -0.008765 0 255 255
-0.421352 -0.269051 -0.008593 0 255 255
-0.422195 -0.267727 -0.008593 0 255 255
-0.431495 -0.271727 -0.008765 0 255 255
-0.432346 -0.27037 -0.008765 0 255 255
-0.433194 -0.26901 -0.008765 0 255 255
-0.442547 -0.272896 -0.008936 0 255 255
-0.434875 -0.266283 -0.008765 0 255 255
-0.427166 -0.259721 -0.008593 0 255 255
-0.43654 -0.263546 -0.008765 0 255 255
-0.437366 -0.262173 -0.008765 0 255 255
-0.438187 -0.260797 -0.008765 0 255 255
-0.439004 -0.25942 -0.008765 0 255 255
-0.431193 -0.252979 -0.008593 0 255 255
-0.431986 -0.251624 -0.008593 0 255 255
-0.441385 -0.255348 -0.008765 0 255 255
-0.433515 -0.24898 -0.008593 0 255 255
-0.451667 -0.257522 -0.008936 0 255 255
-0.443772 -0.251176 -0.008765 0 255 255
-0.444602 -0.249703 -0.008765 0 255 255
-0.445385 -0.248305 -0.008765 0 255 255
-0.446163 -0.246905 -0.008765 0 255 255
-0.446936 -0.245502 -0.008765 0 255 255
-0.45644 -0.248963 -0.008936 0 255 255
-0.448427 -0.242767 -0.008765 0 255 255
-0.466803 -0.250822 -0.009108 0 255 255
-0.467589 -0.249355 -0.009108 0 255 255
-0.46837 -0.247884 -0.009108 0 255 255
-0.460294 -0.241763 -0.008936 0 255 255
-0.469961 -0.244855 -0.009108 0 255 255
-0.461846 -0.238785 -0.008936 0 255 255
-0.453698 -0.232769 -0.008765 0 255 255
-0.454427 -0.231342 -0.008765 0 255 255
-0.481883 -0.243522 -0.00928 0 255 255
-0.46477 -0.233044 -0.008936 0 255 255
-0.456547 -0.227129 -0.008765 0 255 255
-0.466225 -0.230119 -0.008936 0 255 255
-0.475925 -0.23305 -0.009108 0 255 255
-0.485648 -0.235923 -0.00928 0 255 255
-0.482323 -0.219502 -0.009108 0 255 255
-0.464784 -0.20976 -0.008765 0 255 255
-0.474567 -0.212383 -0.008936 0 255 255
-0.466056 -0.206917 -0.008765 0 255 255
-0.457553 -0.201424 -0.008593 0 255 255
-0.44902 -0.195985 -0.008421 0 255 255
-0.449633 -0.194574 -0.008421 0 255 255
-0.441054 -0.189218 -0.008249 0 255 255
-0.441646 -0.187832 -0.008249 0 255 255
-0.442234 -0.186443 -0.008249 0 255 255
-0.452043 -0.188908 -0.008421 0 255 255
-0.443397 -0.183661 -0.008249 0 255 255
-0.453221 -0.186064 -0.008421 0 255 255
-0.453803 -0.184639 -0.008421 0 255 255
-0.445108 -0.179474 -0.008249 0 255 255
-0.44567 -0.178075 -0.008249 0 255 255
-0.46482 -0.184035 -0.008593 0 255 255
-0.465395 -0.182574 -0.008593 0 255 255
-0.465967 -0.181111 -0.008593 0 255 255
-0.457172 -0.176133 -0.008421 0 255 255
-0.457723 -0.174696 -0.008421 0 255 255
-0.448917 -0.169721 -0.008249 0 255 255
-0.458812 -0.171817 -0.008421 0 255 255
-0.468724 -0.173851 -0.008593 0 255 255
-0.469268 -0.172378 -0.008593 0 255 255
-0.460411 -0.167485 -0.008421 0 255 255
-0.479748 -0.172815 -0.008765 0 255 255
-0.470871 -0.167948 -0.008593 0 255 255
-0.480825 -0.169797 -0.008765 0 255 255
-0.481356 -0.168285 -0.008765 0 255 255
-0.481882 -0.166772 -0.008765 0 255 255
-0.482403 -0.165258 -0.008765 0 255 255
-0.473451 -0.160531 -0.008593 0 255 255
-0.473953 -0.159043 -0.008593 0 255 255
-0.48394 -0.160704 -0.008765 0 255 255
-0.474943 -0.156062 -0.008593 0 255 255
-0.465922 -0.151477 -0.008421 0 255 255
-0.475914 -0.153074 -0.008593 0 255 255
-0.485921 -0.15461 -0.008765 0 255 255
-0.486404 -0.153083 -0.008765 0 255 255
-0.486883 -0.151554 -0.008765 0 255 255
-0.48733 -0.150109 -0.008765 0 255 255
-0.478235 -0.145664 -0.008593 0 255 255
-0.47869 -0.14416 -0.008593 0 255 255
-0.47914 -0.142656 -0.008593 0 255 255
-0.489178 -0.143973 -0.008765 0 255 255
-0.480027 -0.139643 -0.008593 0 255 255
-0.490073 -0.140896 -0.008765 0 255 255
-0.480895 -0.136624 -0.008593 0 255 255
-0.490948 -0.137815 -0.008765 0 255 255
-0.491379 -0.136271 -0.008765 0 255 255
-0.482161 -0.132085 -0.008593 0 255 255
-0.472923 -0.127959 -0.008421 0 255 255
-0.492641 -0.131634 -0.008765 0 255 255
-0.493053 -0.130086 -0.008765 0 255 255
-0.483783 -0.126016 -0.008593 0 255 255
-0.484177 -0.124496 -0.008593 0 255 255
-0.484544 -0.123058 -0.008593 0 255 255
-0.494627 -0.123966 -0.008765 0 255 255
-0.485308 -0.120012 -0.008593 0 255 255
-0.485682 -0.118486 -0.008593 0 255 255
-0.486052 -0.11696 -0.008593 0 255 255
-0.486417 -0.115432 -0.008593 0 255 255
-0.486777 -0.113904 -0.008593 0 255 255
-0.487133 -0.112374 -0.008593 0 255 255
-0.487483 -0.110843 -0.008593 0 255 255
