ply
format ascii 1.0
element vertex 1296
property float x
property float y
property float z
property uchar red
property uchar green
property uchar blue
end_header
9.32791 -1.75916 1.84507 0 255 255
9.33198 -1.7903 1.84698 0 255 255
9.33595 -1.82149 1.84889 0 255 255
9.33981 -1.85272 1.8508 0 255 255
9.33394 -1.88205 1.8508 0 255 255
9.3376 -1.91334 1.85271 0 255 255
9.34115 -1.94466 1.85461 0 255 255
9.3446 -1.97603 1.85652 0 255 255
9.35754 -2.0095 1.86034 0 255 255
9.36077 -2.04098 1.86225 0 255 255
9.3639 -2.0725 1.86415 0 255 255
9.36692 -2.10406 1.86606 0 255 255
9.36983 -2.13565 1.86797 0 255 255
9.37302 -2.16565 1.86988 0 255 255
9.37573 -2.19733 1.87179 0 255 255
9.36878 -2.22677 1.87179 0 255 255
9.39036 -2.2631 1.87751 0 255 255
9.38321 -2.29258 1.87751 0 255 255
9.38549 -2.32441 1.87942 0 255 255
9.39718 -2.35866 1.88323 0 255 255
9.39924 -2.39059 1.88514 0 255 255
9.38218 -2.41766 1.88323 0 255 255
9.40303 -2.45456 1.88896 0 255 255
9.41425 -2.48911 1.89277 0 255 255
9.42535 -2.52375 1.89659 0 255 255
9.41782 -2.55171 1.89659 0 255 255
9.41922 -2.58388 1.8985 0 255 255
9.42998 -2.61871 1.90231 0 255 255
9.43115 -2.65098 1.90422 0 255 255
9.42278 -2.68059 1.90422 0 255 255
9.42374 -2.7129 1.90613 0 255 255
9.4246 -2.74524 1.90804 0 255 255
9.43476 -2.78038 1.91185 0 255 255
9.41657 -2.8072 1.90995 0 255 255
9.4547 -2.85094 1.91949 0 255 255
9.46447 -2.88636 1.9233 0 255 255
9.47412 -2.92186 1.92712 0 255 255
9.46489 -2.95161 1.92712 0 255 255
9.4743 -2.98724 1.93094 0 255 255
9.46468 -3.04972 1.93284 0 255 255
9.46439 -3.08247 1.93475 0 255 255
9.47331 -3.11833 1.93857 0 255 255
9.47333 -3.14952 1.94047 0 255 255
9.44478 -3.17301 1.93666 0 255 255
9.4911 -3.21995 1.94811 0 255 255
9.4563 -3.01789 1.57269 0 255 255
9.46557 -3.05365 1.57582 0 255 255
9.46532 -3.08643 1.57738 0 255 255
9.44619 -3.11306 1.57582 0 255 255
9.49259 -3.16144 1.5852 0 255 255
9.49253 -3.19274 1.58677 0 255 255
9.49181 -3.22573 1.58834 0 255 255
9.49097 -3.25874 1.5899 0 255 255
9.50868 -3.29825 1.59459 0 255 255
9.5157 -3.36782 1.59929 0 255 255
9.47717 -3.38772 1.59459 0 255 255
9.49435 -3.42754 1.59929 0 255 255
9.50209 -3.46411 1.60242 0 255 255
9.48189 -3.49054 1.60085 0 255 255
9.51717 -3.53751 1.60868 0 255 255
9.52451 -3.57434 1.61181 0 255 255
9.5317 -3.61124 1.61494 0 255 255
9.52953 -3.64469 1.6165 0 255 255
9.53646 -3.68173 1.61963 0 255 255
9.53405 -3.71526 1.6212 0 255 255
9.53153 -3.7488 1.62276 0 255 255
9.5197 -3.77873 1.62276 0 255 255
9.53529 -3.81964 1.62746 0 255 255
9.5324 -3.85328 1.62902 0 255 255
9.55683 -3.89812 1.63528 0 255 255
9.55367 -3.93189 1.63684 0 255 255
9.55951 -3.96946 1.63997 0 255 255
9.55611 -4.00328 1.64154 0 255 255
9.57987 -4.04867 1.6478 0 255 255
9.57619 -4.08262 1.64936 0 255 255
9.57239 -4.11658 1.65093 0 255 255
9.57753 -4.1545 1.65406 0 255 255
9.58253 -4.19248 1.65719 0 255 255
9.58739 -4.23054 1.66032 0 255 255
9.58382 -4.26298 1.66188 0 255 255
9.59741 -4.3052 1.66658 0 255 255
9.61084 -4.34754 1.67127 0 255 255
9.59713 -4.37771 1.67127 0 255 255
9.61025 -4.42022 1.67597 0 255 255
9.61423 -4.4587 1.6791 0 255 255
9.60913 -4.49307 1.68066 0 255 255
9.58603 -4.51902 1.6791 0 255 255
9.59855 -4.56183 1.68379 0 255 255
9.60198 -4.6005 1.68692 0 255 255
9.61416 -4.64353 1.69162 0 255 255
9.60841 -4.67803 1.69318 0 255 255
9.638 -4.72995 1.701 0 255 255
9.63194 -4.76459 1.70257 0 255 255
9.63461 -4.80364 1.7057 0 255 255
9.62829 -4.83832 1.70726 0 255 255
9.62186 -4.873 1.70883 0 255 255
9.63289 -4.91668 1.71352 0 255 255
9.63496 -4.95595 1.71665 0 255 255
9.64565 -4.99983 1.72135 0 255 255
9.66492 -5.0484 1.72761 0 255 255
9.66649 -5.08794 1.73074 0 255 255
9.68536 -5.13679 1.737 0 255 255
9.66046 -5.16254 1.73543 0 255 255
9.67029 -5.20691 1.74013 0 255 255
9.67124 -5.24669 1.74326 0 255 255
9.63738 -5.26757 1.74013 0 255 255
9.68134 -5.33117 1.75108 0 255 255
9.68276 -5.36945 1.75421 0 255 255
9.69171 -5.4143 1.75891 0 255 255
9.69952 -5.46094 1.7636 0 255 255
9.69091 -5.49626 1.76516 0 255 255
9.69171 -5.53478 1.76829 0 255 255
9.67428 -5.5652 1.76829 0 255 255
9.70802 -5.62528 1.77768 0 255 255
9.71589 -5.67069 1.78238 0 255 255
9.72357 -5.7162 1.78707 0 255 255
9.70313 -5.82793 1.79333 0 255 255
9.71858 -5.87883 1.79959 0 255 255
9.7338 -5.92989 1.80585 0 255 255
9.7488 -5.9811 1.81211 0 255 255
9.75517 -6.02727 1.81681 0 255 255
9.7397 -6.14529 1.82463 0 255 255
9.74535 -6.19175 1.82932 0 255 255
9.77577 -6.25427 1.83871 0 255 255
9.77268 -6.29565 1.84184 0 255 255
9.77771 -6.34244 1.84654 0 255 255
9.79544 -6.44174 1.85749 0 255 255
9.76692 -6.46703 1.85593 0 255 255
9.75477 -6.50316 1.85749 0 255 255
9.8081 -6.58332 1.87157 0 255 255
9.80373 -6.62516 1.8747 0 255 255
9.80591 -6.76212 1.88722 0 255 255
9.79273 -6.79852 1.88879 0 255 255
9.82799 -6.86886 1.89974 0 255 255
9.83867 -6.92243 1.906 0 255 255
9.84106 -6.97044 1.9107 0 255 255
9.84323 -7.01852 1.91539 0 255 255
9.84521 -7.06669 1.92008 0 255 255
9.84698 -7.11493 1.92478 0 255 255
9.84854 -7.16326 1.92947 0 255 255
9.84989 -7.21167 1.93417 0 255 255
9.85899 -7.26602 1.94043 0 255 255
9.86784 -7.3205 1.94669 0 255 255
9.86854 -7.36919 1.95138 0 255 255
9.87692 -7.42389 1.95764 0 255 255
9.87718 -7.47276 1.96234 0 255 255
9.87723 -7.52171 1.96703 0 255 255
9.89274 -7.58274 1.97486 0 255 255
9.89233 -7.63188 1.97955 0 255 255
9.90731 -7.69321 1.98738 0 255 255
9.89866 -7.73646 1.9905 0 255 255
9.92088 -7.80416 1.99989 0 255 255
9.9118 -7.84755 2.00302 0 255 255
9.92572 -7.90943 2.01085 0 255 255
9.93164 -7.96529 2.01711 0 255 255
9.93731 -8.02127 2.02337 0 255 255
9.9274 -8.0649 2.0265 0 255 255
9.9326 -8.12105 2.03276 0 255 255
10.1525 -8.35127 2.08283 0 255 255
10.1947 -8.43981 2.09692 0 255 255
10.9816 -9.20811 2.27061 0 255 255
10.9375 -9.22982 2.26748 0 255 255
10.8859 -9.24496 2.26279 0 255 255
10.8192 -9.24703 2.25497 0 255 255
7.48794 -6.44065 1.56486 0 255 255
7.48261 -6.47707 1.56799 0 255 255
7.44733 -6.48757 1.56486 0 255 255
7.40463 -6.4914 1.56017 0 255 255
7.36939 -6.50156 1.55704 0 255 255
7.31938 -6.49845 1.55078 0 255 255
7.27683 -6.50167 1.54608 0 255 255
7.23434 -6.50469 1.54139 0 255 255
7.1919 -6.5075 1.53669 0 255 255
7.15681 -6.51677 1.53357 0 255 255
7.12174 -6.52587 1.53043 0 255 255
7.07942 -6.52813 1.52574 0 255 255
7.03716 -6.53018 1.52105 0 255 255
6.99495 -6.53203 1.51635 0 255 255
6.96 -6.54045 1.51322 0 255 255
6.91789 -6.54192 1.50853 0 255 255
6.88185 -6.55121 1.5054 0 255 255
6.84098 -6.5511 1.5007 0 255 255
6.79903 -6.552 1.49601 0 255 255
6.76423 -6.55958 1.49288 0 255 255
6.72239 -6.5601 1.48818 0 255 255
6.68765 -6.56735 1.48505 0 255 255
6.65293 -6.57444 1.48192 0 255 255
6.61824 -6.58138 1.47879 0 255 255
6.57659 -6.58118 1.4741 0 255 255
6.54196 -6.58779 1.47097 0 255 255
6.50042 -6.58722 1.46628 0 255 255
6.47278 -6.60056 1.46471 0 255 255
6.47269 -6.64208 1.46941 0 255 255
6.47927 -6.69076 1.47566 0 255 255
6.48562 -6.73955 1.48192 0 255 255
6.49172 -6.78845 1.48818 0 255 255
6.49077 -6.83029 1.49288 0 255 255
6.50319 -6.88655 1.5007 0 255 255
6.50179 -6.92855 1.5054 0 255 255
6.51368 -6.98506 1.51322 0 255 255
6.51184 -7.02722 1.51792 0 255 255
6.52318 -7.08397 1.52574 0 255 255
6.52757 -7.13358 1.532 0 255 255
6.5317 -7.18328 1.53826 0 255 255
6.53559 -7.23308 1.54452 0 255 255
6.54583 -7.29032 1.55234 0 255 255
6.54919 -7.34033 1.5586 0 255 255
6.55231 -7.39043 1.56486 0 255 255
6.56171 -7.44803 1.57269 0 255 255
6.5643 -7.49833 1.57895 0 255 255
6.56664 -7.54873 1.5852 0 255 255
6.57518 -7.60668 1.59303 0 255 255
6.5963 -7.67975 1.60398 0 255 255
6.58497 -7.71546 1.60711 0 255 255
6.58625 -7.76624 1.61337 0 255 255
6.60001 -7.83221 1.62276 0 255 255
6.60073 -7.88319 1.62902 0 255 255
6.60752 -7.94185 1.63684 0 255 255
6.60771 -7.99302 1.64311 0 255 255
7.88027 -9.5936 1.96703 0 255 255
7.82511 -9.5877 1.96077 0 255 255
7.78251 -9.59689 1.95764 0 255 255
7.73373 -9.59822 1.95295 0 255 255
7.68502 -9.59934 1.94825 0 255 255
7.63023 -9.59251 1.94199 0 255 255
7.59393 -9.60869 1.94043 0 255 255
7.55151 -9.61696 1.9373 0 255 255
4.03402 -5.17075 1.03907 0 255 255
4.0117 -5.17559 1.0375 0 255 255
3.99542 -5.18817 1.0375 0 255 255
3.9731 -5.19285 1.03594 0 255 255
3.93584 -5.24586 1.03907 0 255 255
3.91934 -5.2582 1.03907 0 255 255
3.89105 -5.25461 1.03594 0 255 255
3.88623 -5.28272 1.03907 0 255 255
3.85796 -5.27896 1.03594 0 255 255
3.85296 -5.30704 1.03907 0 255 255
3.83049 -5.3111 1.0375 0 255 255
3.81379 -5.32311 1.0375 0 255 255
3.80277 -5.34311 1.03907 0 255 255
3.78026 -5.34697 1.0375 0 255 255
3.70668 -5.27799 1.02185 0 255 255
3.70704 -5.31391 1.02655 0 255 255
3.67909 -5.38123 1.03281 0 255 255
3.66771 -5.40093 1.03437 0 255 255
3.61759 -5.3633 1.02498 0 255 255
3.58423 -5.35002 1.02029 0 255 255
3.54552 -5.32836 1.01403 0 255 255
3.54416 -5.36481 1.01873 0 255 255
3.52281 -5.36705 1.01716 0 255 255
3.51132 -5.38636 1.01873 0 255 255
3.49344 -5.39798 1.01873 0 255 255
3.48181 -5.41723 1.02029 0 255 255
3.47009 -5.43647 1.02185 0 255 255
3.45299 -5.44734 1.02185 0 255 255
3.43586 -5.45817 1.02185 0 255 255
3.42917 -5.48568 1.02498 0 255 255
6.06331 -9.7677 1.8215 0 255 255
6.03778 -9.79511 1.82306 0 255 255
6.00182 -9.8056 1.8215 0 255 255
5.96073 -9.80753 1.81837 0 255 255
5.91968 -9.8093 1.81524 0 255 255
5.87868 -9.8109 1.81211 0 255 255
5.84278 -9.82083 1.81054 0 255 255
5.80185 -9.82213 1.80742 0 255 255
5.76097 -9.82327 1.80429 0 255 255
5.72015 -9.82425 1.80116 0 255 255
5.67937 -9.82507 1.79803 0 255 255
5.64356 -9.8343 1.79646 0 255 255
5.60286 -9.83481 1.79333 0 255 255
5.56707 -9.84377 1.79177 0 255 255
5.52645 -9.84399 1.78864 0 255 255
5.49069 -9.85267 1.78707 0 255 255
5.45014 -9.85259 1.78394 0 255 255
5.41441 -9.861 1.78238 0 255 255
5.37395 -9.86062 1.77925 0 255 255
5.33825 -9.86877 1.77768 0 255 255
5.29787 -9.86808 1.77455 0 255 255
5.2622 -9.87596 1.77299 0 255 255
5.22192 -9.87498 1.76986 0 255 255
5.19087 -9.89134 1.76986 0 255 255
5.15064 -9.89008 1.76673 0 255 255
5.11501 -9.89744 1.76516 0 255 255
5.07488 -9.89588 1.76203 0 255 255
5.03929 -9.90297 1.76047 0 255 255
4.99925 -9.90112 1.75734 0 255 255
4.96369 -9.90795 1.75577 0 255 255
4.92375 -9.9058 1.75265 0 255 255
4.88824 -9.91236 1.75108 0 255 255
4.85273 -9.9188 1.74952 0 255 255
4.81723 -9.92511 1.74795 0 255 255
4.78174 -9.9313 1.74639 0 255 255
4.74626 -9.93736 1.74482 0 255 255
4.71079 -9.94329 1.74326 0 255 255
4.67533 -9.9491 1.74169 0 255 255
4.63571 -9.94584 1.73856 0 255 255
4.60029 -9.95139 1.737 0 255 255
4.55666 -9.93886 1.7323 0 255 255
4.52541 -9.95312 1.7323 0 255 255
4.49006 -9.95829 1.73074 0 255 255
4.45472 -9.96333 1.72917 0 255 255
4.41539 -9.95921 1.72604 0 255 255
4.38011 -9.96399 1.72448 0 255 255
4.34484 -9.96865 1.72291 0 255 255
4.3135 -9.98225 1.72291 0 255 255
4.2726 -9.97834 1.71978 0 255 255
4.23737 -9.98262 1.71822 0 255 255
4.20599 -9.99589 1.71822 0 255 255
4.17076 -9.99994 1.71665 0 255 255
4.13555 -10.0039 1.71509 0 255 255
4.10036 -10.0077 1.71352 0 255 255
4.06519 -10.0113 1.71196 0 255 255
4.03003 -10.0149 1.71039 0 255 255
3.99123 -10.0092 1.70726 0 255 255
3.95976 -10.0217 1.70726 0 255 255
3.92466 -10.0249 1.7057 0 255 255
3.88957 -10.0279 1.70413 0 255 255
3.85451 -10.0309 1.70257 0 255 255
3.81946 -10.0337 1.701 0 255 255
3.78444 -10.0364 1.69944 0 255 255
3.75289 -10.0482 1.69944 0 255 255
3.71788 -10.0507 1.69788 0 255 255
3.68289 -10.0531 1.69631 0 255 255
3.64792 -10.0553 1.69474 0 255 255
3.61297 -10.0574 1.69318 0 255 255
3.58136 -10.0687 1.69318 0 255 255
3.54643 -10.0706 1.69162 0 255 255
3.51301 -10.0823 1.69162 0 255 255
3.47488 -10.0746 1.68849 0 255 255
3.44002 -10.0762 1.68692 0 255 255
3.40518 -10.0776 1.68536 0 255 255
3.37038 -10.0788 1.68379 0 255 255
3.3387 -10.0894 1.68379 0 255 255
3.30698 -10.0998 1.68379 0 255 255
3.26915 -10.0914 1.68066 0 255 255
3.23919 -10.101 1.68066 0 255 255
3.20446 -10.1017 1.6791 0 255 255
3.16799 -10.1029 1.67753 0 255 255
3.13331 -10.1033 1.67597 0 255 255
3.10332 -10.1126 1.67597 0 255 255
3.06866 -10.1128 1.6744 0 255 255
3.03511 -10.123 1.6744 0 255 255
3.00049 -10.123 1.67284 0 255 255
2.9669 -10.1329 1.67284 0 255 255
2.93408 -10.1321 1.67127 0 255 255
2.90223 -10.1413 1.67127 0 255 255
2.86498 -10.1314 1.66814 0 255 255
2.83314 -10.1403 1.66814 0 255 255
2.80127 -10.1492 1.66814 0 255 255
2.76677 -10.1484 1.66658 0 255 255
2.73231 -10.1475 1.66501 0 255 255
2.70295 -10.1656 1.66658 0 255 255
2.66599 -10.1549 1.66345 0 255 255
2.63407 -10.1632 1.66345 0 255 255
2.59968 -10.1619 1.66188 0 255 255
2.56774 -10.17 1.66188 0 255 255
2.53339 -10.1684 1.66032 0 255 255
2.50144 -10.1764 1.66032 0 255 255
2.46713 -10.1746 1.65875 0 255 255
2.43515 -10.1823 1.65875 0 255 255
2.40315 -10.1899 1.65875 0 255 255
2.36889 -10.1877 1.65719 0 255 255
2.33466 -10.1855 1.65562 0 255 255
2.30265 -10.1928 1.65562 0 255 255
2.27062 -10.2 1.65562 0 255 255
2.23467 -10.1978 1.65406 0 255 255
2.20262 -10.2048 1.65406 0 255 255
2.16877 -10.212 1.65406 0 255 255
2.13644 -10.2087 1.65249 0 255 255
2.10436 -10.2154 1.65249 0 255 255
2.07225 -10.222 1.65249 0 255 255
2.0382 -10.2187 1.65093 0 255 255
2.00608 -10.2251 1.65093 0 255 255
1.97395 -10.2313 1.65093 0 255 255
1.93996 -10.2278 1.64936 0 255 255
1.90782 -10.2338 1.64936 0 255 255
1.87566 -10.2398 1.64936 0 255 255
1.84527 -10.2453 1.64936 0 255 255
1.81135 -10.2413 1.6478 0 255 255
1.77738 -10.2473 1.6478 0 255 255
1.74518 -10.2528 1.6478 0 255 255
1.71296 -10.2582 1.6478 0 255 255
1.68072 -10.2636 1.6478 0 255 255
1.64691 -10.259 1.64623 0 255 255
1.61467 -10.2642 1.64623 0 255 255
1.58241 -10.2692 1.64623 0 255 255
1.55162 -10.2839 1.6478 0 255 255
1.51786 -10.2789 1.64623 0 255 255
1.48556 -10.2836 1.64623 0 255 255
1.45325 -10.2883 1.64623 0 255 255
1.42092 -10.2928 1.64623 0 255 255
1.38857 -10.2972 1.64623 0 255 255
1.35442 -10.3017 1.64623 0 255 255
1.32079 -10.2961 1.64467 0 255 255
1.28967 -10.31 1.64623 0 255 255
1.25787 -10.304 1.64467 0 255 255
1.2255 -10.3079 1.64467 0 255 255
1.19131 -10.3119 1.64467 0 255 255
1.15891 -10.3156 1.64467 0 255 255
1.12829 -10.319 1.64467 0 255 255
1.09587 -10.3225 1.64467 0 255 255
1.06343 -10.3259 1.64467 0 255 255
1.03099 -10.3292 1.64467 0 255 255
0.440628 -4.88895 0.777736 0 255 255
0.32002 -3.68004 0.585258 0 255 255
0.305158 -3.64165 0.578999 0 255 255
0.297685 -3.69182 0.586823 0 255 255
0.28456 -3.67304 0.583694 0 255 255
0.273751 -3.68377 0.585258 0 255 255
0.260775 -3.6649 0.582129 0 255 255
0.138653 -2.24764 0.356789 0 255 255
0.131591 -2.24806 0.356789 0 255 255
0.123981 -2.2386 0.355224 0 255 255
0.116433 -2.22912 0.353659 0 255 255
0.108945 -2.21961 0.352094 0 255 255
0.101519 -2.21007 0.350529 0 255 255
0.094575 -2.21038 0.350529 0 255 255
0.087239 -2.2008 0.348964 0 255 255
0.079604 -2.18132 0.345834 0 255 255
0.072751 -2.18156 0.345834 0 255 255
0.065897 -2.18178 0.345834 0 255 255
0.059042 -2.18197 0.345834 0 255 255
0.051715 -2.1624 0.342705 0 255 255
0.045127 -2.17243 0.34427 0 255 255
0.037953 -2.15281 0.34114 0 255 255
0.030673 -2.14305 0.339575 0 255 255
0.02405 -2.15301 0.34114 0 255 255
0.017286 -2.15307 0.34114 0 255 255
0.010474 -2.14324 0.339575 0 255 255
0.003723 -2.13339 0.33801 0 255 255
-0.002993 -2.14326 0.339575 0 255 255
-0.009681 -2.13337 0.33801 0 255 255
-0.016383 -2.13333 0.33801 0 255 255
-0.022978 -2.12339 0.336445 0 255 255
-0.029649 -2.12331 0.336445 0 255 255
-0.036151 -2.11333 0.33488 0 255 255
-0.042989 -2.12308 0.336445 0 255 255
-0.049659 -2.12293 0.336445 0 255 255
-0.056066 -2.11289 0.33488 0 255 255
-0.062996 -2.12258 0.336445 0 255 255
-0.069341 -2.1125 0.33488 0 255 255
-0.076332 -2.12214 0.336445 0 255 255
-0.082998 -2.12189 0.336445 0 255 255
-0.089664 -2.12162 0.336445 0 255 255
-0.096777 -2.13119 0.33801 0 255 255
-0.102514 -2.11115 0.33488 0 255 255
-0.109656 -2.12068 0.336445 0 255 255
-0.116317 -2.12032 0.336445 0 255 255
-0.12355 -2.12981 0.33801 0 255 255
-0.130007 -2.11953 0.336445 0 255 255
-0.136665 -2.11911 0.336445 0 255 255
-0.143322 -2.11867 0.336445 0 255 255
-0.149977 -2.11821 0.336445 0 255 255
-0.15736 -2.12758 0.33801 0 255 255
-0.164043 -2.12707 0.33801 0 255 255
-0.171142 -2.13642 0.339575 0 255 255
-0.177853 -2.13587 0.339575 0 255 255
-0.184935 -2.13527 0.339575 0 255 255
-0.193408 -2.15436 0.342705 0 255 255
-0.199636 -2.14387 0.34114 0 255 255
-0.20694 -2.1531 0.342705 0 255 255
-0.214679 -2.16227 0.34427 0 255 255
-0.221471 -2.16158 0.34427 0 255 255
-0.230336 -2.18052 0.347399 0 255 255
-0.237185 -2.17978 0.347399 0 255 255
-0.244032 -2.17903 0.347399 0 255 255
-0.253136 -2.19787 0.350529 0 255 255
-0.26004 -2.19707 0.350529 0 255 255
-0.268133 -2.20604 0.352094 0 255 255
-0.276284 -2.21499 0.353659 0 255 255
-0.283242 -2.21411 0.353659 0 255 255
-0.499629 -3.71978 0.594648 0 255 255
-0.514004 -3.73776 0.597777 0 255 255
-0.52712 -3.74591 0.599342 0 255 255
-0.540292 -3.75401 0.600907 0 255 255
-0.552083 -3.7523 0.600907 0 255 255
-0.563869 -3.75054 0.600907 0 255 255
-0.575649 -3.74875 0.600907 0 255 255
-0.587423 -3.74693 0.600907 0 255 255
-0.600751 -3.75481 0.602472 0 255 255
-0.614136 -3.76266 0.604037 0 255 255
-0.625953 -3.76071 0.604037 0 255 255
-0.637765 -3.75872 0.604037 0 255 255
-0.651253 -3.76643 0.605602 0 255 255
-0.663082 -3.76437 0.605602 0 255 255
-0.673161 -3.75255 0.604037 0 255 255
-0.686721 -3.76013 0.605602 0 255 255
-0.700335 -3.76766 0.607166 0 255 255
-0.712169 -3.76544 0.607166 0 255 255
-0.723995 -3.76319 0.607166 0 255 255
-0.735814 -3.76089 0.607166 0 255 255
-1.50681 -7.57525 1.22372 0 255 255
-1.53256 -7.58016 1.22529 0 255 255
-1.55835 -7.58498 1.22685 0 255 255
-1.58218 -7.58005 1.22685 0 255 255
-1.61008 -7.59437 1.22998 0 255 255
-1.63393 -7.58927 1.22998 0 255 255
-1.65565 -7.57445 1.22842 0 255 255
-1.68372 -7.5885 1.23155 0 255 255
-1.70972 -7.5928 1.23311 0 255 255
-1.73576 -7.59702 1.23468 0 255 255
-1.75962 -7.59154 1.23468 0 255 255
-1.78705 -7.59527 1.23624 0 255 255
-1.8132 -7.59923 1.23781 0 255 255
-1.83573 -7.59381 1.23781 0 255 255
-1.86428 -7.60719 1.24093 0 255 255
-1.88685 -7.60163 1.24093 0 255 255
-1.91578 -7.60458 1.2425 0 255 255
-1.94699 -7.62723 1.2472 0 255 255
-0.317879 -1.21341 0.198737 0 255 255
-0.321689 -1.2124 0.198737 0 255 255
-0.325497 -1.21139 0.198737 0 255 255
-0.331893 -1.21989 0.200302 0 255 255
-0.335724 -1.21884 0.200302 0 255 255
-0.339552 -1.21778 0.200302 0 255 255
-0.343376 -1.2167 0.200302 0 255 255
-0.349909 -1.22512 0.201867 0 255 255
-0.351014 -1.21452 0.200302 0 255 255
-0.354827 -1.21342 0.200302 0 255 255
-0.358638 -1.21229 0.200302 0 255 255
-0.365276 -1.22062 0.201867 0 255 255
-0.366248 -1.21002 0.200302 0 255 255
-0.372938 -1.2183 0.201867 0 255 255
-0.370922 -1.19826 0.198737 0 255 255
-0.380585 -1.21594 0.201867 0 255 255
-0.384404 -1.21474 0.201867 0 255 255
-0.388218 -1.21352 0.201867 0 255 255
-0.392029 -1.2123 0.201867 0 255 255
-0.395835 -1.21106 0.201867 0 255 255
-0.399638 -1.20981 0.201867 0 255 255
-0.403648 -1.20848 0.201867 0 255 255
-0.407442 -1.2072 0.201867 0 255 255
-0.411233 -1.20592 0.201867 0 255 255
-0.415019 -1.20462 0.201867 0 255 255
-0.418802 -1.20331 0.201867 0 255 255
-0.425855 -1.21131 0.203432 0 255 255
-0.429659 -1.20996 0.203432 0 255 255
-0.433458 -1.20861 0.203432 0 255 255
-0.440616 -1.21652 0.204997 0 255 255
-0.441043 -1.20586 0.203432 0 255 255
-0.448251 -1.21373 0.204997 0 255 255
-0.452062 -1.21232 0.204997 0 255 255
-0.455868 -1.21089 0.204997 0 255 255
-0.45967 -1.20945 0.204997 0 255 255
-0.463467 -1.208 0.204997 0 255 255
-0.463693 -1.19733 0.203432 0 255 255
-0.471048 -1.20507 0.204997 0 255 255
-0.474832 -1.20358 0.204997 0 255 255
-0.482264 -1.21126 0.206562 0 255 255
-0.482385 -1.20057 0.204997 0 255 255
-0.489865 -1.20821 0.206562 0 255 255
-0.493658 -1.20666 0.206562 0 255 255
-0.497447 -1.2051 0.206562 0 255 255
-0.50123 -1.20354 0.206562 0 255 255
-0.509046 -1.21097 0.208127 0 255 255
-0.512637 -1.20946 0.208127 0 255 255
-0.520317 -1.21692 0.209691 0 255 255
-0.520226 -1.20621 0.208127 0 255 255
-0.520073 -1.19552 0.206562 0 255 255
-0.527795 -1.20292 0.208127 0 255 255
-0.539564 -1.21932 0.211256 0 255 255
-0.535342 -1.19958 0.208127 0 255 255
-0.543162 -1.2069 0.209691 0 255 255
-0.54695 -1.20519 0.209691 0 255 255
-0.546624 -1.19448 0.208127 0 255 255
-0.554512 -1.20173 0.209691 0 255 255
-0.558285 -1.19998 0.209691 0 255 255
-0.562052 -1.19822 0.209691 0 255 255
-0.570036 -1.20537 0.211256 0 255 255
-0.569569 -1.19466 0.209691 0 255 255
-0.577598 -1.20177 0.211256 0 255 255
-0.58158 -1.19985 0.211256 0 255 255
-0.585347 -1.19801 0.211256 0 255 255
-0.584536 -1.18741 0.209691 0 255 255
-0.592654 -1.19442 0.211256 0 255 255
-0.601031 -1.20128 0.212821 0 255 255
-0.604802 -1.19938 0.212821 0 255 255
-0.608776 -1.19737 0.212821 0 255 255
-0.607823 -1.18677 0.211256 0 255 255
-0.616079 -1.19363 0.212821 0 255 255
-0.619826 -1.19169 0.212821 0 255 255
-0.628152 -1.19848 0.214386 0 255 255
-0.627301 -1.18777 0.212821 0 255 255
-0.143703 -0.200796 0.039122 0 255 255
-0.127566 -0.175902 0.034427 0 255 255
-0.16306 -0.223365 0.043816 0 255 255
-0.152063 -0.206933 0.040686 0 255 255
-0.140965 -0.190573 0.037557 0 255 255
-0.147462 -0.198052 0.039122 0 255 255
-0.148083 -0.197587 0.039122 0 255 255
-0.154652 -0.205006 0.040686 0 255 255
-0.161268 -0.212385 0.042251 0 255 255
-0.167932 -0.219725 0.043816 0 255 255
-0.162599 -0.211368 0.042251 0 255 255
-0.163225 -0.210885 0.042251 0 255 255
-0.163887 -0.210371 0.042251 0 255 255
-0.182871 -0.23314 0.046946 0 255 255
-0.171362 -0.21706 0.043816 0 255 255
-0.184332 -0.231987 0.046946 0 255 255
-0.178891 -0.223693 0.045381 0 255 255
-0.191937 -0.238551 0.048511 0 255 255
-0.180254 -0.222596 0.045381 0 255 255
-0.187233 -0.229652 0.046946 0 255 255
-0.200484 -0.244333 0.050076 0 255 255
-0.182383 -0.220855 0.045381 0 255 255
-0.189389 -0.227877 0.046946 0 255 255
-0.196441 -0.234857 0.048511 0 255 255
-0.209899 -0.249351 0.05164 0 255 255
-0.204297 -0.241154 0.050076 0 255 255
-0.217869 -0.255543 0.053205 0 255 255
-0.218671 -0.254857 0.053205 0 255 255
-0.213015 -0.246694 0.05164 0 255 255
-0.226746 -0.260934 0.05477 0 255 255
-0.221063 -0.252785 0.053205 0 255 255
-0.23486 -0.266959 0.056335 0 255 255
-0.22915 -0.258825 0.05477 0 255 255
-0.249722 -0.280183 0.059465 0 255 255
-0.244006 -0.272045 0.0579 0 255 255
-0.238242 -0.263945 0.056335 0 255 255
-0.252352 -0.277818 0.059465 0 255 255
-0.259887 -0.284313 0.06103 0 255 255
-0.267466 -0.290765 0.062594 0 255 255
-0.268378 -0.289923 0.062594 0 255 255
-0.276019 -0.296305 0.064159 0 255 255
-0.276949 -0.295437 0.064159 0 255 255
-0.298208 -0.316119 0.068854 0 255 255
-0.2856 -0.300854 0.065724 0 255 255
-0.307011 -0.321381 0.070419 0 255 255
-0.308019 -0.320415 0.070419 0 255 255
-0.315891 -0.326544 0.071984 0 255 255
-0.303137 -0.311396 0.068854 0 255 255
-0.304113 -0.310442 0.068854 0 255 255
-0.312021 -0.316519 0.070419 0 255 255
-0.31997 -0.322549 0.071984 0 255 255
-0.320981 -0.321542 0.071984 0 255 255
-0.30799 -0.306596 0.068854 0 255 255
-0.322995 -0.319519 0.071984 0 255 255
-0.331041 -0.325427 0.073549 0 255 255
-0.332062 -0.324385 0.073549 0 255 255
-0.340166 -0.33022 0.075113 0 255 255
-0.341202 -0.329149 0.075113 0 255 255
-0.342234 -0.328076 0.075113 0 255 255
-0.343263 -0.326999 0.075113 0 255 255
-0.337116 -0.319129 0.073549 0 255 255
-0.352505 -0.331603 0.076678 0 255 255
-0.36076 -0.337239 0.078243 0 255 255
-0.369054 -0.342826 0.079808 0 255 255
-0.362872 -0.334966 0.078243 0 255 255
-0.363922 -0.333824 0.078243 0 255 255
-0.372269 -0.339333 0.079808 0 255 255
-0.380653 -0.344792 0.081373 0 255 255
-0.374393 -0.336987 0.079808 0 255 255
-0.382812 -0.342394 0.081373 0 255 255
-0.383886 -0.341189 0.081373 0 255 255
-0.384956 -0.339982 0.081373 0 255 255
-0.393445 -0.345285 0.082938 0 255 255
-0.37964 -0.331065 0.079808 0 255 255
-0.380679 -0.32987 0.079808 0 255 255
-0.396682 -0.341562 0.082938 0 255 255
-0.382744 -0.327472 0.079808 0 255 255
-0.383771 -0.326268 0.079808 0 255 255
-0.392339 -0.331435 0.081373 0 255 255
-0.393378 -0.3302 0.081373 0 255 255
-0.386829 -0.322637 0.079808 0 255 255
-0.395445 -0.327722 0.081373 0 255 255
-0.388848 -0.3202 0.079808 0 255 255
-0.397496 -0.325231 0.081373 0 255 255
-0.390852 -0.31775 0.079808 0 255 255
-0.391849 -0.316521 0.079808 0 255 255
-0.392841 -0.315288 0.079808 0 255 255
-0.393829 -0.314053 0.079808 0 255 255
-0.387073 -0.30668 0.078243 0 255 255
-0.395741 -0.311641 0.079808 0 255 255
-0.396718 -0.310396 0.079808 0 255 255
-0.389893 -0.303087 0.078243 0 255 255
-0.39866 -0.307897 0.079808 0 255 255
-0.399679 -0.306574 0.079808 0 255 255
-0.40064 -0.305317 0.079808 0 255 255
-0.393775 -0.298026 0.078243 0 255 255
-0.394657 -0.296856 0.078243 0 255 255
-0.419269 -0.313425 0.082938 0 255 255
-0.412322 -0.306217 0.081373 0 255 255
-0.42123 -0.310784 0.082938 0 255 255
-0.422204 -0.309459 0.082938 0 255 255
-0.423174 -0.308132 0.082938 0 255 255
-0.42414 -0.3068 0.082938 0 255 255
-0.425102 -0.305467 0.082938 0 255 255
-0.41802 -0.298391 0.081373 0 255 255
-0.418956 -0.297077 0.081373 0 255 255
-0.411812 -0.290071 0.079808 0 255 255
-0.428907 -0.300101 0.082938 0 255 255
-0.421737 -0.293115 0.081373 0 255 255
-0.422656 -0.291788 0.081373 0 255 255
-0.42357 -0.290459 0.081373 0 255 255
-0.408155 -0.278007 0.078243 0 255 255
-0.409026 -0.276723 0.078243 0 255 255
-0.409893 -0.275437 0.078243 0 255 255
-0.427187 -0.285114 0.081373 0 255 255
-0.42808 -0.28377 0.081373 0 255 255
-0.42072 -0.276993 0.079808 0 255 255
-0.429855 -0.281075 0.081373 0 255 255
-0.430736 -0.279723 0.081373 0 255 255
-0.431613 -0.278369 0.081373 0 255 255
-0.432485 -0.277011 0.081373 0 255 255
-0.433353 -0.275651 0.081373 0 255 255
-0.434217 -0.274288 0.081373 0 255 255
-0.42671 -0.267674 0.079808 0 255 255
-0.435932 -0.271555 0.081373 0 255 255
-0.436783 -0.270184 0.081373 0 255 255
-0.446045 -0.27398 0.082938 0 255 255
-0.438472 -0.267434 0.081373 0 255 255
-0.43931 -0.266055 0.081373 0 255 255
-0.440143 -0.264674 0.081373 0 255 255
-0.440973 -0.26329 0.081373 0 255 255
-0.441752 -0.26198 0.081373 0 255 255
-0.442573 -0.260591 0.081373 0 255 255
-0.443389 -0.2592 0.081373 0 255 255
-0.444201 -0.257805 0.081373 0 255 255
-0.445009 -0.256409 0.081373 0 255 255
-0.445812 -0.255009 0.081373 0 255 255
-0.446656 -0.25353 0.081373 0 255 255
-0.44745 -0.252125 0.081373 0 255 255
-0.448196 -0.250796 0.081373 0 255 255
-0.457616 -0.254183 0.082938 0 255 255
-0.449806 -0.247897 0.081373 0 255 255
-0.450583 -0.246482 0.081373 0 255 255
-0.442717 -0.240276 0.079808 0 255 255
-0.452123 -0.243646 0.081373 0 255 255
-0.452843 -0.242304 0.081373 0 255 255
-0.462326 -0.245512 0.082938 0 255 255
-0.463095 -0.244059 0.082938 0 255 255
-0.463859 -0.242603 0.082938 0 255 255
-0.447127 -0.231966 0.079808 0 255 255
-0.456635 -0.235081 0.081373 0 255 255
-0.457371 -0.233646 0.081373 0 255 255
-0.458103 -0.232208 0.081373 0 255 255
-0.450006 -0.22633 0.079808 0 255 255
-0.450715 -0.224915 0.079808 0 255 255
-0.45138 -0.223576 0.079808 0 255 255
-0.443216 -0.217801 0.078243 0 255 255
-0.452776 -0.220736 0.079808 0 255 255
-0.462359 -0.223613 0.081373 0 255 255
-0.454154 -0.217887 0.079808 0 255 255
-0.463755 -0.220703 0.081373 0 255 255
-0.446583 -0.210813 0.078243 0 255 255
-0.456188 -0.213597 0.079808 0 255 255
-0.465814 -0.216323 0.081373 0 255 255
-0.457521 -0.210726 0.079808 0 255 255
-0.45818 -0.209288 0.079808 0 255 255
-0.458836 -0.207847 0.079808 0 255 255
-0.468496 -0.210452 0.081373 0 255 255
-0.478177 -0.212998 0.082938 0 255 255
-0.469809 -0.207504 0.081373 0 255 255
-0.470458 -0.206027 0.081373 0 255 255
-0.462044 -0.200615 0.079808 0 255 255
-0.471744 -0.203067 0.081373 0 255 255
-0.472344 -0.201667 0.081373 0 255 255
-0.46388 -0.196332 0.079808 0 255 255
-0.473637 -0.198612 0.081373 0 255 255
-0.474258 -0.197123 0.081373 0 255 255
-0.465709 -0.191952 0.079808 0 255 255
-0.475454 -0.194223 0.081373 0 255 255
-0.476061 -0.192728 0.081373 0 255 255
-0.476664 -0.191231 0.081373 0 255 255
-0.486441 -0.193382 0.082938 0 255 255
-0.477857 -0.188233 0.081373 0 255 255
-0.487646 -0.190321 0.082938 0 255 255
-0.47903 -0.185227 0.081373 0 255 255
-0.479609 -0.183721 0.081373 0 255 255
-0.480184 -0.182213 0.081373 0 255 255
-0.480754 -0.180704 0.081373 0 255 255
-0.472063 -0.175746 0.079808 0 255 255
-0.48188 -0.177679 0.081373 0 255 255
-0.482436 -0.176165 0.081373 0 255 255
-0.492275 -0.178007 0.082938 0 255 255
-0.483533 -0.17313 0.081373 0 255 255
-0.474766 -0.16831 0.079808 0 255 255
-0.475292 -0.166818 0.079808 0 255 255
-0.485144 -0.168565 0.081373 0 255 255
-0.485671 -0.16704 0.081373 0 255 255
-0.486164 -0.165598 0.081373 0 255 255
-0.486682 -0.16407 0.081373 0 255 255
-0.477826 -0.159415 0.079808 0 255 255
-0.487703 -0.161009 0.081373 0 255 255
-0.488207 -0.159476 0.081373 0 255 255
-0.479307 -0.154904 0.079808 0 255 255
-0.489199 -0.156406 0.081373 0 255 255
-0.480271 -0.15189 0.079808 0 255 255
-0.490172 -0.153329 0.081373 0 255 255
-0.481216 -0.148869 0.079808 0 255 255
-0.481681 -0.147357 0.079808 0 255 255
-0.482142 -0.145843 0.079808 0 255 255
-0.482598 -0.144327 0.079808 0 255 255
-0.49252 -0.145611 0.081373 0 255 255
-0.483495 -0.141292 0.079808 0 255 255
-0.483936 -0.139773 0.079808 0 255 255
-0.484373 -0.138252 0.079808 0 255 255
-0.494311 -0.13941 0.081373 0 255 255
-0.485232 -0.135205 0.079808 0 255 255
-0.485654 -0.13368 0.079808 0 255 255
-0.486072 -0.132154 0.079808 0 255 255
-0.486485 -0.130626 0.079808 0 255 255
-0.48687 -0.129182 0.079808 0 255 255
-0.477719 -0.125149 0.078243 0 255 255
-0.468548 -0.121175 0.076678 0 255 255
-0.478496 -0.122145 0.078243 0 255 255
-0.478878 -0.120641 0.078243 0 255 255
-0.479254 -0.119136 0.078243 0 255 255
-0.489219 -0.119983 0.079808 0 255 255
-0.479993 -0.116123 0.078243 0 255 255
-0.480356 -0.114614 0.078243 0 255 255
-0.480713 -0.113104 0.078243 0 255 255
-0.481066 -0.111594 0.078243 0 255 255
-0.481415 -0.110082 0.078243 0 255 255
-0.481758 -0.108569 0.078243 0 255 255
-0.491739 -0.109196 0.079808 0 255 255
-0.482431 -0.10554 0.078243 0 255 255
-0.48276 -0.104024 0.078243 0 255 255
-0.473405 -0.100539 0.076678 0 255 255
-0.483386 -0.101073 0.078243 0 255 255
-0.493393 -0.101458 0.079808 0 255 255
-0.474348 -0.09599 0.076678 0 255 255
-0.484351 -0.096343 0.078243 0 255 255
-0.484635 -0.094906 0.078243 0 255 255
-0.475216 -0.091598 0.076678 0 255 255
-0.485206 -0.091944 0.078243 0 255 255
-0.485492 -0.090419 0.078243 0 255 255
-0.485774 -0.088893 0.078243 0 255 255
-0.495771 -0.089114 0.079808 0 255 255
-0.476596 -0.084123 0.076678 0 255 255
-0.48659 -0.084311 0.078243 0 255 255
-0.477115 -0.081126 0.076678 0 255 255
-0.477368 -0.079627 0.076678 0 255 255
-0.487363 -0.079721 0.078243 0 255 255
-0.487611 -0.07819 0.078243 0 255 255
-0.46834 -0.073591 0.075113 0 255 255
-0.468556 -0.072201 0.075113 0 255 255
-0.478547 -0.072203 0.076678 0 255 255
-0.469001 -0.069256 0.075113 0 255 255
-0.469216 -0.067782 0.075113 0 255 255
-0.479206 -0.067689 0.076678 0 255 255
-0.469633 -0.064833 0.075113 0 255 255
-0.469834 -0.063357 0.075113 0 255 255
-0.479823 -0.06317 0.076678 0 255 255
-0.460426 -0.059145 0.073549 0 255 255
-0.45081 -0.056471 0.071984 0 255 255
-0.460789 -0.056251 0.073549 0 255 255
-0.470771 -0.055969 0.075113 0 255 255
-0.470945 -0.05449 0.075113 0 255 255
-0.461299 -0.051906 0.073549 0 255 255
-0.471278 -0.05153 0.075113 0 255 255
-0.461616 -0.049007 0.073549 0 255 255
-0.461767 -0.047556 0.073549 0 255 255
-0.452086 -0.045124 0.071984 0 255 255
-0.452218 -0.043783 0.071984 0 255 255
-0.452354 -0.042362 0.071984 0 255 255
-0.452484 -0.04094 0.071984 0 255 255
-0.452611 -0.039519 0.071984 0 255 255
-0.452733 -0.038097 0.071984 0 255 255
-0.462695 -0.037471 0.073549 0 255 255
-0.452963 -0.035251 0.071984 0 255 255
-0.443222 -0.033093 0.070419 0 255 255
-0.453176 -0.032405 0.071984 0 255 255
-0.443422 -0.030307 0.070419 0 255 255
-0.45337 -0.029557 0.071984 0 255 255
-0.443603 -0.027521 0.070419 0 255 255
-0.443683 -0.026204 0.070419 0 255 255
-0.433902 -0.024259 0.068854 0 255 255
-0.443839 -0.023416 0.070419 0 255 255
-0.44391 -0.022021 0.070419 0 255 255
-0.453843 -0.021085 0.071984 0 255 255
-0.434172 -0.018805 0.068854 0 255 255
-0.434229 -0.01744 0.068854 0 255 255
-0.444152 -0.016441 0.070419 0 255 255
-0.444201 -0.015046 0.070419 0 255 255
-0.444246 -0.013651 0.070419 0 255 255
-0.444285 -0.012332 0.070419 0 255 255
-0.444321 -0.010937 0.070419 0 255 255
-0.434479 -0.009329 0.068854 0 255 255
-0.434506 -0.007964 0.068854 0 255 255
-0.434529 -0.006599 0.068854 0 255 255
-0.434548 -0.005233 0.068854 0 255 255
-0.434562 -0.003868 0.068854 0 255 255
-0.434572 -0.002503 0.068854 0 255 255
-0.434578 -0.001138 0.068854 0 255 255
-0.434579 0.000228 0.068854 0 255 255
-0.434576 0.001593 0.068854 0 255 255
-0.434569 0.002958 0.068854 0 255 255
-0.434558 0.004323 0.068854 0 255 255
-0.444418 0.005818 0.070419 0 255 255
-0.414771 0.006733 0.065724 0 255 255
-0.434498 0.008419 0.068854 0 255 255
-0.434471 0.009708 0.068854 0 255 255
-0.434438 0.011073 0.068854 0 255 255
-0.434403 0.012362 0.068854 0 255 255
-0.43436 0.013802 0.068854 0 255 255
-0.424444 0.014822 0.067289 0 255 255
-0.434265 0.016531 0.068854 0 255 255
-0.424342 0.017488 0.067289 0 255 255
-0.434152 0.019259 0.068854 0 255 255
-0.424227 0.02008 0.067289 0 255 255
-0.424162 0.021413 0.067289 0 255 255
-0.443818 0.023803 0.070419 0 255 255
-0.43388 0.024638 0.068854 0 255 255
-0.433801 0.026 0.068854 0 255 255
-0.443574 0.027985 0.070419 0 255 255
-0.423774 0.028073 0.067289 0 255 255
-0.433536 0.030088 0.068854 0 255 255
-0.423589 0.030735 0.067289 0 255 255
-0.42349 0.032065 0.067289 0 255 255
-0.433234 0.034172 0.068854 0 255 255
-0.433124 0.035533 0.068854 0 255 255
-0.423169 0.036055 0.067289 0 255 255
-0.432892 0.038254 0.068854 0 255 255
-0.422941 0.03864 0.067289 0 255 255
-0.442484 0.041827 0.070419 0 255 255
-0.44235 0.043217 0.070419 0 255 255
-0.432385 0.043615 0.068854 0 255 255
-0.432246 0.044973 0.068854 0 255 255
-0.432103 0.046331 0.068854 0 255 255
-0.441772 0.048772 0.070419 0 255 255
-0.421989 0.04793 0.067289 0 255 255
-0.431647 0.050401 0.068854 0 255 255
-0.431486 0.051757 0.068854 0 255 255
-0.441124 0.05432 0.070419 0 255 255
-0.431152 0.054467 0.068854 0 255 255
-0.440784 0.057013 0.070419 0 255 255
-0.440603 0.058398 0.070419 0 255 255
-0.440417 0.059782 0.070419 0 255 255
-0.440227 0.061165 0.070419 0 255 255
-0.430254 0.061158 0.068854 0 255 255
-0.439834 0.06393 0.070419 0 255 255
-0.439631 0.065311 0.070419 0 255 255
-0.439424 0.066692 0.070419 0 255 255
-0.439224 0.067996 0.070419 0 255 255
-0.419497 0.066292 0.067289 0 255 255
-0.448539 0.072326 0.071984 0 255 255
-0.44831 0.073735 0.071984 0 255 255
-0.438335 0.073509 0.070419 0 255 255
-0.438102 0.074886 0.070419 0 255 255
-0.428134 0.074567 0.068854 0 255 255
-0.447348 0.079363 0.071984 0 255 255
-0.437377 0.079012 0.070419 0 255 255
-0.437126 0.080385 0.070419 0 255 255
-0.436886 0.081682 0.070419 0 255 255
-0.436627 0.083054 0.070419 0 255 255
-0.436364 0.084425 0.070419 0 255 255
-0.426406 0.083889 0.068854 0 255 255
-0.435825 0.087165 0.070419 0 255 255
-0.445228 0.090502 0.071984 0 255 255
-0.435269 0.089902 0.070419 0 255 255
-0.434984 0.091269 0.070419 0 255 255
-0.434711 0.092559 0.070419 0 255 255
-0.444072 0.096012 0.071984 0 255 255
-0.443768 0.097406 0.071984 0 255 255
-0.43382 0.096652 0.070419 0 255 255
-0.443148 0.100193 0.071984 0 255 255
-0.442831 0.101584 0.071984 0 255 255
-0.442509 0.102975 0.071984 0 255 255
-0.442184 0.104365 0.071984 0 255 255
-0.441854 0.105753 0.071984 0 255 255
-0.441519 0.107141 0.071984 0 255 255
-0.441199 0.108451 0.071984 0 255 255
-0.45044 0.112224 0.073549 0 255 255
-0.450085 0.113638 0.073549 0 255 255
-0.440158 0.112604 0.071984 0 255 255
-0.458923 0.118942 0.075113 0 255 255
-0.448994 0.117875 0.073549 0 255 255
-0.448622 0.119285 0.073549 0 255 255
-0.457782 0.123262 0.075113 0 255 255
-0.457393 0.1247 0.075113 0 255 255
-0.456999 0.126136 0.075113 0 255 255
-0.4566 0.127571 0.075113 0 255 255
-0.456197 0.129005 0.075113 0 255 255
-0.455812 0.130358 0.075113 0 255 255
-0.464888 0.134535 0.076678 0 255 255
-0.464463 0.135994 0.076678 0 255 255
-0.464034 0.137453 0.076678 0 255 255
-0.473061 0.141745 0.078243 0 255 255
-0.463161 0.140366 0.076678 0 255 255
-0.462742 0.14174 0.076678 0 255 255
-0.471729 0.146115 0.078243 0 255 255
-0.471268 0.147596 0.078243 0 255 255
-0.470802 0.149076 0.078243 0 255 255
-0.470331 0.150554 0.078243 0 255 255
-0.460459 0.14899 0.076678 0 255 255
-0.478764 0.156576 0.079808 0 255 255
-0.468891 0.15498 0.078243 0 255 255
-0.47777 0.159582 0.079808 0 255 255
-0.477267 0.161082 0.079808 0 255 255
-0.476758 0.16258 0.079808 0 255 255
-0.476274 0.163994 0.079808 0 255 255
-0.485085 0.168735 0.081373 0 255 255
-0.475234 0.166983 0.079808 0 255 255
-0.484015 0.171779 0.081373 0 255 255
-0.464878 0.166633 0.078243 0 255 255
-0.473639 0.171455 0.079808 0 255 255
-0.473098 0.172942 0.079808 0 255 255
-0.472583 0.174345 0.079808 0 255 255
-0.462777 0.172381 0.078243 0 255 255
-0.471478 0.177311 0.079808 0 255 255
-0.470919 0.178791 0.079808 0 255 255
-0.470355 0.18027 0.079808 0 255 255
-0.469786 0.181746 0.079808 0 255 255
-0.460012 0.179629 0.078243 0 255 255
-0.468635 0.184695 0.079808 0 255 255
-0.477263 0.189733 0.081373 0 255 255
-0.476664 0.191231 0.081373 0 255 255
-0.466906 0.189022 0.079808 0 255 255
-0.475453 0.194223 0.081373 0 255 255
-0.465709 0.191952 0.079808 0 255 255
-0.465104 0.193414 0.079808 0 255 255
-0.464494 0.194874 0.079808 0 255 255
-0.472975 0.200182 0.081373 0 255 255
-0.472344 0.201667 0.081373 0 255 255
-0.471708 0.20315 0.081373 0 255 255
-0.462044 0.200615 0.079808 0 255 255
-0.461411 0.202065 0.079808 0 255 255
-0.469809 0.207504 0.081373 0 255 255
-0.469155 0.208979 0.081373 0 255 255
-0.468496 0.210452 0.081373 0 255 255
-0.467832 0.211923 0.081373 0 255 255
-0.45818 0.209288 0.079808 0 255 255
-0.466492 0.214858 0.081373 0 255 255
-0.465852 0.216241 0.081373 0 255 255
-0.474116 0.22189 0.082938 0 255 255
-0.473417 0.223379 0.082938 0 255 255
-0.463793 0.220622 0.081373 0 255 255
-0.454192 0.217807 0.079808 0 255 255
-0.47129 0.227831 0.082938 0 255 255
-0.470612 0.229228 0.082938 0 255 255
-0.452158 0.221999 0.079808 0 255 255
-0.460311 0.2278 0.081373 0 255 255
-0.459593 0.229245 0.081373 0 255 255
-0.45887 0.230687 0.081373 0 255 255
-0.458143 0.232128 0.081373 0 255 255
-0.466208 0.238057 0.082938 0 255 255
-0.456676 0.235002 0.081373 0 255 255
-0.455935 0.236435 0.081373 0 255 255
-0.463986 0.24236 0.082938 0 255 255
-0.454482 0.239216 0.081373 0 255 255
-0.453729 0.240643 0.081373 0 255 255
-0.461681 0.246722 0.082938 0 255 255
-0.452208 0.243489 0.081373 0 255 255
-0.442801 0.240121 0.079808 0 255 255
-0.459379 0.250982 0.082938 0 255 255
-0.449936 0.247661 0.081373 0 255 255
-0.457793 0.253863 0.082938 0 255 255
-0.456993 0.2553 0.082938 0 255 255
-0.447582 0.251891 0.081373 0 255 255
-0.446788 0.253296 0.081373 0 255 255
-0.44599 0.254698 0.081373 0 255 255
-0.453749 0.261023 0.082938 0 255 255
-0.444381 0.257495 0.081373 0 255 255
-0.443615 0.258813 0.081373 0 255 255
-0.451315 0.265209 0.082938 0 255 255
-0.45898 0.271656 0.084503 0 255 255
-0.44964 0.268039 0.082938 0 255 255
-0.448796 0.269451 0.082938 0 255 255
-0.447947 0.270859 0.082938 0 255 255
-0.447094 0.272265 0.082938 0 255 255
-0.463076 0.283995 0.086067 0 255 255
-0.445375 0.275069 0.082938 0 255 255
-0.436121 0.27125 0.081373 0 255 255
-0.452057 0.283026 0.084503 0 255 255
-0.442811 0.279177 0.082938 0 255 255
-0.45032 0.285782 0.084503 0 255 255
-0.44942 0.287195 0.084503 0 255 255
-0.44021 0.283261 0.082938 0 255 255
-0.439318 0.284643 0.082938 0 255 255
-0.446693 0.291418 0.084503 0 255 255
-0.445776 0.29282 0.084503 0 255 255
-0.436615 0.28877 0.082938 0 255 255
-0.435706 0.290141 0.082938 0 255 255
-0.434792 0.291508 0.082938 0 255 255
-0.442061 0.298398 0.084503 0 255 255
-0.433004 0.294158 0.082938 0 255 255
-0.423925 0.289942 0.081373 0 255 255
-0.439282 0.302475 0.084503 0 255 255
-0.430212 0.298226 0.082938 0 255 255
-0.437426 0.305152 0.084503 0 255 255
-0.428382 0.300849 0.082938 0 255 255
-0.4355 0.307895 0.084503 0 255 255
-0.426483 0.303534 0.082938 0 255 255
-0.425528 0.304873 0.082938 0 255 255
-0.424568 0.306208 0.082938 0 255 255
-0.431596 0.313343 0.084503 0 255 255
-0.422636 0.30887 0.082938 0 255 255
-0.421717 0.310122 0.082938 0 255 255
-0.420741 0.311446 0.082938 0 255 255
-0.42768 0.318667 0.084503 0 255 255
-0.418776 0.314083 0.082938 0 255 255
-0.417787 0.315397 0.082938 0 255 255
-0.416794 0.316708 0.082938 0 255 255
-0.415797 0.318016 0.082938 0 255 255
-0.430449 0.33137 0.086067 0 255 255
-0.421655 0.326598 0.084503 0 255 255
-0.428416 0.333994 0.086067 0 255 255
-0.411824 0.323144 0.082938 0 255 255
-0.403056 0.318315 0.081373 0 255 255
-0.409843 0.325654 0.082938 0 255 255
-0.416531 0.333108 0.084503 0 255 255
-0.415483 0.334415 0.084503 0 255 255
-0.41443 0.335719 0.084503 0 255 255
-0.398063 0.324537 0.081373 0 255 255
-0.389406 0.319521 0.079808 0 255 255
-0.396016 0.327032 0.081373 0 255 255
-0.394987 0.328274 0.081373 0 255 255
-0.401588 0.33578 0.082938 0 255 255
-0.408089 0.343399 0.084503 0 255 255
-0.39953 0.338227 0.082938 0 255 255
-0.390889 0.333143 0.081373 0 255 255
-0.38984 0.33437 0.081373 0 255 255
-0.396265 0.342046 0.082938 0 255 255
-0.380333 0.330269 0.079808 0 255 255
-0.379294 0.331462 0.079808 0 255 255
-0.385667 0.339175 0.081373 0 255 255
-0.377203 0.333839 0.079808 0 255 255
-0.368777 0.328453 0.078243 0 255 255
-0.375098 0.336202 0.079808 0 255 255
-0.374099 0.337314 0.079808 0 255 255
-0.365723 0.33185 0.078243 0 255 255
-0.371972 0.339657 0.079808 0 255 255
-0.363631 0.334142 0.078243 0 255 255
-0.355328 0.328577 0.076678 0 255 255
-0.361524 0.33642 0.078243 0 255 255
-0.360465 0.337554 0.078243 0 255 255
-0.359403 0.338685 0.078243 0 255 255
-0.358397 0.33975 0.078243 0 255 255
-0.357328 0.340874 0.078243 0 255 255
-0.356255 0.341995 0.078243 0 255 255
-0.362283 0.349974 0.079808 0 255 255
-0.368263 0.357995 0.081373 0 255 255
-0.374197 0.366057 0.082938 0 255 255
-0.366007 0.360302 0.081373 0 255 255
-0.385923 0.382303 0.086067 0 255 255
-0.356803 0.355559 0.079808 0 255 255
-0.362658 0.363672 0.081373 0 255 255
-0.347609 0.350779 0.078243 0 255 255
-0.360366 0.365944 0.081373 0 255 255
-0.379938 0.388251 0.086067 0 255 255
-0.351174 0.36112 0.079808 0 255 255
-0.36383 0.376363 0.082938 0 255 255
-0.369488 0.384627 0.084503 0 255 255
-0.361458 0.378641 0.082938 0 255 255
-0.35347 0.372609 0.081373 0 255 255
-0.359139 0.380842 0.082938 0 255 255
-0.364694 0.389175 0.084503 0 255 255
-0.356739 0.383091 0.082938 0 255 255
-0.355533 0.38421 0.082938 0 255 255
-0.36101 0.392595 0.084503 0 255 255
-0.353112 0.386436 0.082938 0 255 255
-0.345323 0.380171 0.081373 0 255 255
-0.350745 0.388586 0.082938 0 255 255
-0.342928 0.382334 0.081373 0 255 255
-0.341725 0.383409 0.081373 0 255 255
-0.340519 0.384481 0.081373 0 255 255
-0.339309 0.385549 0.081373 0 255 255
-0.331595 0.379178 0.079808 0 255 255
-0.33688 0.387673 0.081373 0 255 255
-0.335728 0.388671 0.081373 0 255 255
-0.334506 0.389723 0.081373 0 255 255
-0.326871 0.383258 0.079808 0 255 255
-0.325665 0.384283 0.079808 0 255 255
-0.324456 0.385304 0.079808 0 255 255
-0.329582 0.393896 0.081373 0 255 255
-0.328412 0.394872 0.081373 0 255 255
-0.32717 0.395902 0.081373 0 255 255
-0.332192 0.404561 0.082938 0 255 255
-0.324676 0.39795 0.081373 0 255 255
-0.329644 0.40664 0.082938 0 255 255
-0.322169 0.399982 0.081373 0 255 255
-0.314808 0.393226 0.079808 0 255 255
-0.313571 0.394213 0.079808 0 255 255
-0.306207 0.387447 0.078243 0 255 255
-0.304988 0.388407 0.078243 0 255 255
-0.297691 0.381576 0.076678 0 255 255
-0.284389 0.366897 0.073549 0 255 255
-0.295355 0.383388 0.076678 0 255 255
-0.288146 0.37647 0.075113 0 255 255
-0.29294 0.385236 0.076678 0 255 255
-0.279821 0.370393 0.073549 0 255 255
-0.284585 0.379169 0.075113 0 255 255
-0.277488 0.372144 0.073549 0 255 255
-0.282263 0.380901 0.075113 0 255 255
-0.286921 0.389739 0.076678 0 255 255
-0.285695 0.390639 0.076678 0 255 255
-0.284467 0.391534 0.076678 0 255 255
-0.277455 0.384418 0.075113 0 255 255
-0.27049 0.377261 0.073549 0 255 255
-0.26937 0.378061 0.073549 0 255 255
-0.273887 0.386968 0.075113 0 255 255
-0.266989 0.379746 0.073549 0 255 255
-0.27145 0.388681 0.075113 0 255 255
-0.258968 0.373301 0.071984 0 255 255
-0.263399 0.382246 0.073549 0 255 255
-0.262263 0.383026 0.073549 0 255 255
-0.266613 0.392015 0.075113 0 255 255
-0.270909 0.401035 0.076678 0 255 255
-0.264144 0.393682 0.075113 0 255 255
-0.268454 0.402682 0.076678 0 255 255
-0.256282 0.387053 0.073549 0 255 255
-0.249638 0.379604 0.071984 0 255 255
-0.243043 0.372117 0.070419 0 255 255
-0.247248 0.381165 0.071984 0 255 255
-0.256747 0.398546 0.075113 0 255 255
-0.239525 0.374391 0.070419 0 255 255
-0.233051 0.366805 0.068854 0 255 255
-0.231962 0.367495 0.068854 0 255 255
-0.236052 0.376591 0.070419 0 255 255
-0.234868 0.377331 0.070419 0 255 255
-0.212909 0.344461 0.064159 0 255 255
-0.784288 2.05816 0.348964 0 255 255
-0.774331 2.05137 0.347399 0 255 255
-0.771341 2.06305 0.348964 0 255 255
-0.754567 2.03767 0.34427 0 255 255
-0.751562 2.04931 0.345834 0 255 255
-0.748492 2.06094 0.347399 0 255 255
-0.738671 2.05399 0.345834 0 255 255
-0.732214 2.0563 0.345834 0 255 255
-0.719539 2.03983 0.342705 0 255 255
-0.716383 2.05141 0.34427 0 255 255
-0.706708 2.04431 0.342705 0 255 255
-0.700283 2.04652 0.342705 0 255 255
-0.697377 2.05795 0.34427 0 255 255
-0.690909 2.06013 0.34427 0 255 255
-0.684434 2.06229 0.34427 0 255 255
-0.677951 2.06443 0.34427 0 255 255
-0.671462 2.06655 0.34427 0 255 255
-0.661943 2.05924 0.342705 0 255 255
-0.655831 2.0612 0.342705 0 255 255
-0.652318 2.07267 0.34427 0 255 255
-0.645802 2.07471 0.34427 0 255 255
-0.636376 2.06729 0.342705 0 255 255
-0.633117 2.07861 0.34427 0 255 255
-0.623736 2.07114 0.342705 0 255 255
-0.617226 2.07309 0.342705 0 255 255
-0.61071 2.07502 0.342705 0 255 255
-0.60143 2.06744 0.34114 0 255 255
-0.592202 2.05983 0.339575 0 255 255
-0.585728 2.06168 0.339575 0 255 255
-0.581918 2.07302 0.34114 0 255 255
-0.575402 2.07483 0.34114 0 255 255
-0.569244 2.07653 0.34114 0 255 255
-0.562717 2.07831 0.34114 0 255 255
-0.553634 2.07053 0.339575 0 255 255
-0.547488 2.07216 0.339575 0 255 255
-0.540975 2.07387 0.339575 0 255 255
-0.534458 2.07556 0.339575 0 255 255
-0.527934 2.07723 0.339575 0 255 255
-0.519003 2.0693 0.33801 0 255 255
-0.5125 2.07092 0.33801 0 255 255
-0.506353 2.07243 0.33801 0 255 255
-0.497526 2.06441 0.336445 0 255 255
-0.491037 2.06596 0.336445 0 255 255
-0.484545 2.06749 0.336445 0 255 255
-0.473601 2.04976 0.333316 0 255 255
-0.469352 2.06086 0.33488 0 255 255
-0.46107 2.05261 0.333316 0 255 255
-0.454619 2.05405 0.333316 0 255 255
-0.450269 2.06512 0.33488 0 255 255
-0.443779 2.06652 0.33488 0 255 255
-0.43524 2.05824 0.333316 0 255 255
-0.428773 2.0596 0.333316 0 255 255
-0.424643 2.07054 0.33488 0 255 255
-0.416184 2.06218 0.333316 0 255 255
-0.408138 2.05372 0.331751 0 255 255
-0.403218 2.06476 0.333316 0 255 255
-0.396729 2.06601 0.333316 0 255 255
-0.388405 2.05754 0.331751 0 255 255
-0.382299 2.05869 0.331751 0 255 255
-0.375829 2.05988 0.331751 0 255 255
-0.367613 2.05133 0.330186 0 255 255
-0.362879 2.0622 0.331751 0 255 255
-0.356759 2.06327 0.331751 0 255 255
-0.348623 2.05464 0.330186 0 255 255
-0.342166 2.05572 0.330186 0 255 255
-0.337297 2.06654 0.331751 0 255 255
-0.329602 2.05778 0.330186 0 255 255
-0.323136 2.0588 0.330186 0 255 255
-0.315166 2.05004 0.328621 0 255 255
-0.310194 2.06079 0.330186 0 255 255
-0.304077 2.0617 0.330186 0 255 255
-0.297599 2.06265 0.330186 0 255 255
-0.292498 2.07335 0.331751 0 255 255
-0.285983 2.07426 0.331751 0 255 255
-0.278147 2.06536 0.330186 0 255 255
-0.270369 2.05643 0.328621 0 255 255
-0.26265 2.04747 0.327056 0 255 255
-0.254991 2.03849 0.325491 0 255 255
-0.24739 2.02947 0.323926 0 255 255
-0.241368 2.0302 0.323926 0 255 255
-0.236123 2.04076 0.325491 0 255 255
-0.228607 2.03168 0.323926 0 255 255
-0.223654 2.04216 0.325491 0 255 255
-0.217237 2.04286 0.325491 0 255 255
