ply
format ascii 1.0
element vertex 1308
property float x
property float y
property float z
property uchar red
property uchar green
property uchar blue
end_header
-0.280227 -0.105554 0.080196 0 255 255
-0.280557 -0.104673 0.080196 0 255 255
-0.262763 -0.097095 0.075022 0 255 255
-0.272155 -0.099541 0.077609 0 255 255
-0.281549 -0.101975 0.080196 0 255 255
-0.281868 -0.10109 0.080196 0 255 255
-0.273081 -0.096971 0.077609 0 255 255
-0.282497 -0.099317 0.080196 0 255 255
-0.282808 -0.098429 0.080196 0 255 255
-0.283116 -0.09754 0.080196 0 255 255
-0.274278 -0.093532 0.077609 0 255 255
-0.283723 -0.095759 0.080196 0 255 255
-0.284023 -0.094867 0.080196 0 255 255
-0.275148 -0.090943 0.077609 0 255 255
-0.284613 -0.093081 0.080196 0 255 255
-0.284904 -0.092186 0.080196 0 255 255
-0.285192 -0.091291 0.080196 0 255 255
-0.285493 -0.090345 0.080196 0 255 255
-0.294994 -0.092333 0.082783 0 255 255
-0.276828 -0.085693 0.077609 0 255 255
-0.277096 -0.084822 0.077609 0 255 255
-0.295852 -0.089548 0.082783 0 255 255
-0.286877 -0.085849 0.080196 0 255 255
-0.287146 -0.084947 0.080196 0 255 255
-0.296682 -0.086756 0.082783 0 255 255
-0.287674 -0.083142 0.080196 0 255 255
-0.278645 -0.079585 0.077609 0 255 255
-0.28819 -0.081332 0.080196 0 255 255
-0.288444 -0.080427 0.080196 0 255 255
-0.279383 -0.076955 0.077609 0 255 255
-0.279623 -0.076077 0.077609 0 255 255
-0.289203 -0.077654 0.080196 0 255 255
-0.270772 -0.071794 0.075022 0 255 255
-0.280341 -0.073389 0.077609 0 255 255
-0.289922 -0.074925 0.080196 0 255 255
-0.280796 -0.071626 0.077609 0 255 255
-0.290387 -0.073102 0.080196 0 255 255
-0.281241 -0.069861 0.077609 0 255 255
-0.281459 -0.068977 0.077609 0 255 255
-0.272285 -0.065822 0.075022 0 255 255
-0.281887 -0.067207 0.077609 0 255 255
-0.282096 -0.066321 0.077609 0 255 255
-0.291714 -0.067616 0.080196 0 255 255
-0.282508 -0.064547 0.077609 0 255 255
-0.282709 -0.063659 0.077609 0 255 255
-0.273488 -0.060631 0.075022 0 255 255
-0.283114 -0.061832 0.077609 0 255 255
-0.283307 -0.060943 0.077609 0 255 255
-0.274047 -0.058051 0.075022 0 255 255
-0.283684 -0.059161 0.077609 0 255 255
-0.283869 -0.05827 0.077609 0 255 255
-0.274582 -0.055465 0.075022 0 255 255
-0.265281 -0.052719 0.072435 0 255 255
-0.274925 -0.053739 0.075022 0 255 255
-0.294065 -0.056522 0.080196 0 255 255
-0.284749 -0.053804 0.077609 0 255 255
-0.294414 -0.054673 0.080196 0 255 255
-0.275579 -0.05028 0.075022 0 255 255
-0.275735 -0.049414 0.075022 0 255 255
-0.285411 -0.050172 0.077609 0 255 255
-0.304605 -0.05256 0.082783 0 255 255
-0.276197 -0.046765 0.075022 0 255 255
-0.276343 -0.045897 0.075022 0 255 255
-0.286019 -0.046581 0.077609 0 255 255
-0.276625 -0.04416 0.075022 0 255 255
-0.276763 -0.04329 0.075022 0 255 255
-0.295994 -0.045346 0.080196 0 255 255
-0.286582 -0.042983 0.077609 0 255 255
-0.286716 -0.042083 0.077609 0 255 255
-0.286847 -0.041182 0.077609 0 255 255
-0.286974 -0.040281 0.077609 0 255 255
-0.2871 -0.039379 0.077609 0 255 255
-0.296796 -0.039759 0.080196 0 255 255
-0.296919 -0.038827 0.080196 0 255 255
-0.29704 -0.037894 0.080196 0 255 255
-0.306743 -0.038153 0.082783 0 255 255
-0.297272 -0.036027 0.080196 0 255 255
-0.306977 -0.036224 0.082783 0 255 255
-0.307089 -0.03526 0.082783 0 255 255
-0.287999 -0.032151 0.077609 0 255 255
-0.307305 -0.03333 0.082783 0 255 255
-0.297807 -0.031301 0.080196 0 255 255
-0.307513 -0.031345 0.082783 0 255 255
-0.297998 -0.029429 0.080196 0 255 255
-0.298089 -0.028493 0.080196 0 255 255
-0.298177 -0.027556 0.080196 0 255 255
-0.307883 -0.027478 0.082783 0 255 255
-0.307968 -0.02651 0.082783 0 255 255
-0.30805 -0.025543 0.082783 0 255 255
-0.298499 -0.023807 0.080196 0 255 255
-0.308204 -0.023607 0.082783 0 255 255
-0.298643 -0.021931 0.080196 0 255 255
-0.29871 -0.020993 0.080196 0 255 255
-0.298775 -0.020054 0.080196 0 255 255
-0.298836 -0.019115 0.080196 0 255 255
-0.298895 -0.018177 0.080196 0 255 255
-0.308594 -0.017793 0.082783 0 255 255
-0.289358 -0.015772 0.077609 0 255 255
-0.289406 -0.014863 0.077609 0 255 255
-0.289451 -0.013954 0.077609 0 255 255
-0.289494 -0.013045 0.077609 0 255 255
-0.279882 -0.011731 0.075022 0 255 255
-0.28957 -0.011225 0.077609 0 255 255
-0.27995 -0.009972 0.075022 0 255 255
-0.289635 -0.009406 0.077609 0 255 255
-0.289665 -0.008445 0.077609 0 255 255
-0.28969 -0.007535 0.077609 0 255 255
-0.280055 -0.006404 0.075022 0 255 255
-0.280074 -0.005524 0.075022 0 255 255
-0.270431 -0.004484 0.072435 0 255 255
-0.280103 -0.003765 0.075022 0 255 255
-0.270454 -0.002785 0.072435 0 255 255
-0.280121 -0.002005 0.075022 0 255 255
-0.280126 -0.001125 0.075022 0 255 255
-0.270468 -0.000236 0.072435 0 255 255
-0.260808 0.000592 0.069848 0 255 255
-0.270465 0.001463 0.072435 0 255 255
-0.270459 0.002313 0.072435 0 255 255
-0.27045 0.003163 0.072435 0 255 255
-0.280097 0.004156 0.075022 0 255 255
-0.260767 0.004688 0.069848 0 255 255
-0.260751 0.005507 0.069848 0 255 255
-0.251075 0.006092 0.067261 0 255 255
-0.270367 0.00741 0.072435 0 255 255
-0.279997 0.008555 0.075022 0 255 255
-0.270315 0.009109 0.072435 0 255 255
-0.270285 0.009958 0.072435 0 255 255
-0.260601 0.010421 0.069848 0 255 255
-0.279868 0.012072 0.075022 0 255 255
-0.279828 0.012952 0.075022 0 255 255
-0.270139 0.013354 0.072435 0 255 255
-0.279742 0.01471 0.075022 0 255 255
-0.279694 0.015588 0.075022 0 255 255
-0.279644 0.016467 0.075022 0 255 255
-0.279591 0.017345 0.075022 0 255 255
-0.260253 0.017012 0.069848 0 255 255
-0.269836 0.01849 0.072435 0 255 255
-0.289046 0.020719 0.077609 0 255 255
-0.279347 0.020906 0.075022 0 255 255
-0.27928 0.021784 0.075022 0 255 255
-0.269582 0.02188 0.072435 0 255 255
-0.279137 0.023538 0.075022 0 255 255
-0.279062 0.024415 0.075022 0 255 255
-0.278984 0.025291 0.075022 0 255 255
-0.278903 0.026168 0.075022 0 255 255
-0.288434 0.027976 0.077609 0 255 255
-0.278733 0.027919 0.075022 0 255 255
-0.269036 0.027802 0.072435 0 255 255
-0.278552 0.02967 0.075022 0 255 255
-0.28806 0.031599 0.077609 0 255 255
-0.287959 0.032503 0.077609 0 255 255
-0.287856 0.033408 0.077609 0 255 255
-0.297341 0.035456 0.080196 0 255 255
-0.28764 0.035216 0.077609 0 255 255
-0.306696 0.038527 0.082783 0 255 255
-0.296993 0.038256 0.080196 0 255 255
-0.296872 0.039189 0.080196 0 255 255
-0.296747 0.040122 0.080196 0 255 255
-0.287051 0.03973 0.077609 0 255 255
-0.306053 0.04334 0.082783 0 255 255
-0.296356 0.042917 0.080196 0 255 255
-0.305775 0.045262 0.082783 0 255 255
-0.29608 0.044778 0.080196 0 255 255
-0.315031 0.048657 0.08537 0 255 255
-0.305335 0.048142 0.082783 0 255 255
-0.305182 0.049101 0.082783 0 255 255
-0.305026 0.050059 0.082783 0 255 255
-0.323922 0.054206 0.087957 0 255 255
-0.304706 0.051975 0.082783 0 255 255
-0.314058 0.054586 0.08537 0 255 255
-0.304373 0.053888 0.082783 0 255 255
-0.304202 0.054844 0.082783 0 255 255
-0.31353 0.057543 0.08537 0 255 255
-0.313347 0.058528 0.08537 0 255 255
-0.303672 0.057709 0.082783 0 255 255
-0.312973 0.060496 0.08537 0 255 255
-0.312782 0.061479 0.08537 0 255 255
-0.312587 0.062461 0.08537 0 255 255
-0.312389 0.063443 0.08537 0 255 255
-0.302728 0.062472 0.082783 0 255 255
-0.311984 0.065404 0.08537 0 255 255
-0.321225 0.068396 0.087957 0 255 255
-0.311567 0.067363 0.08537 0 255 255
-0.311354 0.068342 0.08537 0 255 255
-0.30171 0.067219 0.082783 0 255 255
-0.301485 0.068219 0.082783 0 255 255
-0.301269 0.069166 0.082783 0 255 255
-0.310458 0.072303 0.08537 0 255 255
-0.31023 0.073278 0.08537 0 255 255
-0.300604 0.072002 0.082783 0 255 255
-0.290989 0.070667 0.080196 0 255 255
-0.290766 0.07158 0.080196 0 255 255
-0.299912 0.074832 0.082783 0 255 255
-0.299675 0.075774 0.082783 0 255 255
-0.290078 0.074318 0.080196 0 255 255
-0.289857 0.075178 0.080196 0 255 255
-0.298962 0.078543 0.082783 0 255 255
-0.289379 0.076998 0.080196 0 255 255
-0.289135 0.077906 0.080196 0 255 255
-0.307512 0.083953 0.08537 0 255 255
-0.288626 0.079772 0.080196 0 255 255
-0.288374 0.080678 0.080196 0 255 255
-0.306708 0.086847 0.08537 0 255 255
-0.297147 0.08515 0.082783 0 255 255
-0.287601 0.083393 0.080196 0 255 255
-0.296607 0.087015 0.082783 0 255 255
-0.287071 0.085198 0.080196 0 255 255
-0.277551 0.083322 0.077609 0 255 255
-0.28653 0.087 0.080196 0 255 255
-0.286256 0.0879 0.080196 0 255 255
-0.276753 0.085934 0.077609 0 255 255
-0.285698 0.089697 0.080196 0 255 255
-0.294621 0.093516 0.082783 0 255 255
-0.275931 0.088539 0.077609 0 255 255
-0.28484 0.092385 0.080196 0 255 255
-0.284548 0.093279 0.080196 0 255 255
-0.284254 0.094173 0.080196 0 255 255
-0.283956 0.095066 0.080196 0 255 255
-0.283656 0.095957 0.080196 0 255 255
-0.274213 0.093724 0.077609 0 255 255
-0.273917 0.094585 0.077609 0 255 255
-0.264498 0.092263 0.075022 0 255 255
-0.273317 0.096304 0.077609 0 255 255
-0.282114 0.100401 0.080196 0 255 255
-0.272707 0.098019 0.077609 0 255 255
-0.290558 0.105467 0.082783 0 255 255
-0.272086 0.099731 0.077609 0 255 255
-0.28083 0.103938 0.080196 0 255 255
-0.280502 0.10482 0.080196 0 255 255
-0.280172 0.1057 0.080196 0 255 255
-0.288865 0.110018 0.082783 0 255 255
-0.288518 0.110925 0.082783 0 255 255
-0.270158 0.104842 0.077609 0 255 255
-0.278821 0.109213 0.080196 0 255 255
-0.278477 0.110088 0.080196 0 255 255
-0.287101 0.114542 0.082783 0 255 255
-0.28674 0.115443 0.082783 0 255 255
-0.286376 0.116344 0.082783 0 255 255
-0.277071 0.113579 0.080196 0 255 255
-0.276713 0.114449 0.080196 0 255 255
-0.276352 0.115317 0.080196 0 255 255
-0.284891 0.119933 0.082783 0 255 255
-0.275622 0.117052 0.080196 0 255 255
-0.275253 0.117917 0.080196 0 255 255
-0.257147 0.111118 0.075022 0 255 255
-0.274507 0.119644 0.080196 0 255 255
-0.291815 0.12828 0.08537 0 255 255
-0.264919 0.117451 0.077609 0 255 255
-0.273367 0.122226 0.080196 0 255 255
-0.272982 0.123084 0.080196 0 255 255
-0.272594 0.123941 0.080196 0 255 255
-0.263422 0.120771 0.077609 0 255 255
-0.280578 0.129704 0.082783 0 255 255
-0.280169 0.130585 0.082783 0 255 255
-0.271015 0.127357 0.080196 0 255 255
-0.270613 0.128207 0.080196 0 255 255
-0.270209 0.129057 0.080196 0 255 255
-0.261099 0.125715 0.077609 0 255 255
-0.278083 0.13497 0.082783 0 255 255
-0.277658 0.135843 0.082783 0 255 255
-0.285893 0.140987 0.08537 0 255 255
-0.268149 0.133285 0.080196 0 255 255
-0.259092 0.1298 0.077609 0 255 255
-0.275953 0.139273 0.082783 0 255 255
-0.266904 0.13576 0.080196 0 255 255
-0.266476 0.136598 0.080196 0 255 255
-0.257464 0.133001 0.077609 0 255 255
-0.265613 0.138269 0.080196 0 255 255
-0.265177 0.139103 0.080196 0 255 255
-0.256199 0.135421 0.077609 0 255 255
-0.247246 0.131685 0.075022 0 255 255
-0.263854 0.141596 0.080196 0 255 255
-0.237917 0.128641 0.072435 0 255 255
-0.254477 0.13863 0.077609 0 255 255
-0.262508 0.144077 0.080196 0 255 255
-0.262054 0.144901 0.080196 0 255 255
-0.253159 0.141022 0.077609 0 255 255
-0.235867 0.132363 0.072435 0 255 255
-0.243859 0.137857 0.075022 0 255 255
-0.251819 0.143402 0.077609 0 255 255
-0.251367 0.144192 0.077609 0 255 255
-0.259277 0.149814 0.080196 0 255 255
-0.242108 0.14091 0.075022 0 255 255
-0.249997 0.146555 0.077609 0 255 255
-0.257853 0.152251 0.080196 0 255 255
-0.249071 0.148123 0.077609 0 255 255
-0.248605 0.148905 0.077609 0 255 255
-0.248136 0.149685 0.077609 0 255 255
-0.239409 0.145448 0.075022 0 255 255
-0.25543 0.156282 0.080196 0 255 255
-0.246714 0.152017 0.077609 0 255 255
-0.246235 0.152791 0.077609 0 255 255
-0.237562 0.148445 0.075022 0 255 255
-0.237095 0.149191 0.075022 0 255 255
-0.236625 0.149935 0.075022 0 255 255
-0.252439 0.161069 0.080196 0 255 255
-0.260058 0.167083 0.082783 0 255 255
-0.251422 0.162652 0.080196 0 255 255
-0.234722 0.152897 0.075022 0 255 255
-0.23424 0.153633 0.075022 0 255 255
-0.241817 0.159691 0.077609 0 255 255
-0.241314 0.16045 0.077609 0 255 255
-0.240809 0.161208 0.077609 0 255 255
-0.232291 0.156565 0.075022 0 255 255
-0.255777 0.173565 0.082783 0 255 255
-0.223354 0.152533 0.072435 0 255 255
-0.238793 0.164179 0.077609 0 255 255
-0.230333 0.159431 0.075022 0 255 255
-0.237757 0.165676 0.077609 0 255 255
-0.237235 0.166422 0.077609 0 255 255
-0.244601 0.172739 0.080196 0 255 255
-0.228312 0.162313 0.075022 0 255 255
-0.243511 0.174273 0.080196 0 255 255
-0.235125 0.16939 0.077609 0 255 255
-0.234592 0.170128 0.077609 0 255 255
-0.234056 0.170864 0.077609 0 255 255
-0.233518 0.171599 0.077609 0 255 255
-0.232978 0.172332 0.077609 0 255 255
-0.21694 0.161525 0.072435 0 255 255
-0.224161 0.167999 0.075022 0 255 255
-0.208209 0.157068 0.069848 0 255 255
-0.223101 0.169404 0.075022 0 255 255
-0.214893 0.164238 0.072435 0 255 255
-0.214376 0.164913 0.072435 0 255 255
-0.206219 0.159672 0.069848 0 255 255
-0.205716 0.160319 0.069848 0 255 255
-0.197611 0.155003 0.067261 0 255 255
-0.197123 0.155623 0.067261 0 255 255
-0.204196 0.16225 0.069848 0 255 255
-0.211229 0.168924 0.072435 0 255 255
-0.210698 0.169587 0.072435 0 255 255
-0.210164 0.170248 0.072435 0 255 255
-0.217115 0.177011 0.075022 0 255 255
-0.20912 0.171529 0.072435 0 255 255
-0.20858 0.172185 0.072435 0 255 255
-0.208038 0.172839 0.072435 0 255 255
-0.200083 0.167296 0.069848 0 255 255
-0.214339 0.180362 0.075022 0 255 255
-0.213771 0.181035 0.075022 0 255 255
-0.198468 0.169209 0.069848 0 255 255
-0.197936 0.169831 0.069848 0 255 255
-0.204743 0.17673 0.072435 0 255 255
-0.211479 0.183707 0.075022 0 255 255
-0.203629 0.178013 0.072435 0 255 255
-0.203069 0.178651 0.072435 0 255 255
-0.202506 0.179289 0.072435 0 255 255
-0.201942 0.179924 0.072435 0 255 255
-0.194184 0.174109 0.069848 0 255 255
-0.207979 0.18766 0.075022 0 255 255
-0.200237 0.181819 0.072435 0 255 255
-0.206796 0.188963 0.075022 0 255 255
-0.199091 0.183074 0.072435 0 255 255
-0.205605 0.190259 0.075022 0 255 255
-0.205006 0.190904 0.075022 0 255 255
-0.197357 0.184942 0.072435 0 255 255
-0.196775 0.185561 0.072435 0 255 255
-0.189184 0.179529 0.069848 0 255 255
-0.195605 0.186794 0.072435 0 255 255
-0.188052 0.180714 0.069848 0 255 255
-0.201371 0.194734 0.075022 0 255 255
-0.200759 0.195366 0.075022 0 255 255
-0.193242 0.189237 0.072435 0 255 255
-0.185767 0.183063 0.069848 0 255 255
-0.19205 0.190447 0.072435 0 255 255
-0.19145 0.19105 0.072435 0 255 255
-0.184065 0.184773 0.069848 0 255 255
-0.183484 0.185351 0.069848 0 255 255
-0.196449 0.199699 0.075022 0 255 255
-0.189068 0.193407 0.072435 0 255 255
-0.195155 0.200963 0.075022 0 255 255
-0.187815 0.194624 0.072435 0 255 255
-0.187237 0.195181 0.072435 0 255 255
-0.179958 0.188776 0.069848 0 255 255
-0.199293 0.210378 0.077609 0 255 255
-0.178768 0.189903 0.069848 0 255 255
-0.18477 0.197518 0.072435 0 255 255
-0.177571 0.191023 0.069848 0 255 255
-0.170416 0.184484 0.067261 0 255 255
-0.176368 0.192135 0.069848 0 255 255
-0.175763 0.192688 0.069848 0 255 255
-0.175157 0.193239 0.069848 0 255 255
-0.174549 0.193788 0.069848 0 255 255
-0.180382 0.201533 0.072435 0 255 255
-0.173328 0.194881 0.069848 0 255 255
-0.179112 0.202663 0.072435 0 255 255
-0.178474 0.203224 0.072435 0 255 255
-0.171484 0.196506 0.069848 0 255 255
-0.177229 0.204311 0.072435 0 255 255
-0.17028 0.19755 0.069848 0 255 255
-0.169659 0.198084 0.069848 0 255 255
-0.169035 0.198616 0.069848 0 255 255
-0.168411 0.199146 0.069848 0 255 255
-0.173998 0.207069 0.072435 0 255 255
-0.173347 0.207615 0.072435 0 255 255
-0.172694 0.208159 0.072435 0 255 255
-0.178183 0.216154 0.075022 0 255 255
-0.165262 0.201767 0.069848 0 255 255
-0.164627 0.202285 0.069848 0 255 255
-0.170065 0.210312 0.072435 0 255 255
-0.163353 0.203315 0.069848 0 255 255
-0.16874 0.211377 0.072435 0 255 255
-0.174078 0.219474 0.075022 0 255 255
-0.167408 0.212433 0.072435 0 255 255
-0.160785 0.205352 0.069848 0 255 255
-0.172001 0.221105 0.075022 0 255 255
-0.171306 0.221644 0.075022 0 255 255
-0.164726 0.21452 0.072435 0 255 255
-0.164088 0.215007 0.072435 0 255 255
-0.169248 0.223219 0.075022 0 255 255
-0.162734 0.216034 0.072435 0 255 255
-0.167842 0.224278 0.075022 0 255 255
-0.167137 0.224804 0.075022 0 255 255
-0.160691 0.217558 0.072435 0 255 255
-0.160007 0.218062 0.072435 0 255 255
-0.159321 0.218564 0.072435 0 255 255
-0.164299 0.226887 0.075022 0 255 255
-0.152304 0.211719 0.069848 0 255 255
-0.157254 0.220055 0.072435 0 255 255
-0.156562 0.220548 0.072435 0 255 255
-0.155868 0.221039 0.072435 0 255 255
-0.149631 0.213616 0.069848 0 255 255
-0.148959 0.214085 0.069848 0 255 255
-0.148286 0.214552 0.069848 0 255 255
-0.147649 0.214991 0.069848 0 255 255
-0.141529 0.207474 0.067261 0 255 255
-0.151713 0.223911 0.072435 0 255 255
-0.151009 0.224387 0.072435 0 255 255
-0.139568 0.208799 0.067261 0 255 255
-0.138911 0.209236 0.067261 0 255 255
-0.138253 0.209671 0.067261 0 255 255
-0.142885 0.218186 0.069848 0 255 255
-0.142199 0.218633 0.069848 0 255 255
-0.136271 0.210965 0.067261 0 255 255
-0.135607 0.211392 0.067261 0 255 255
-0.134942 0.211817 0.067261 0 255 255
-0.123947 0.195914 0.062087 0 255 255
-0.133609 0.212661 0.067261 0 255 255
-0.13294 0.213079 0.067261 0 255 255
-0.127183 0.205285 0.064674 0 255 255
-0.121476 0.197456 0.062087 0 255 255
-0.105748 0.173107 0.054326 0 255 255
-0.110213 0.181697 0.056913 0 255 255
-0.301387 0.626796 0.186261 0 255 255
-0.336843 0.706207 0.209544 0 255 255
-0.344711 0.734543 0.217305 0 255 255
-0.342401 0.735622 0.217305 0 255 255
-0.348186 0.754235 0.222479 0 255 255
-0.341793 0.746542 0.219892 0 255 255
-0.327592 0.721169 0.212131 0 255 255
-0.33326 0.739809 0.217305 0 255 255
0.817074 2.07639 0.597588 0 255 255
0.820027 2.06483 0.595001 0 255 255
0.819323 2.04431 0.589827 0 255 255
0.822119 2.03277 0.58724 0 255 255
37.0882 53.8025 17.5008 0 255 255
37.5436 53.3795 17.4775 0 255 255
37.7167 53.2692 17.4801 0 255 255
38.0281 52.9998 17.4697 0 255 255
38.1739 52.871 17.4646 0 255 255
38.3341 52.743 17.462 0 255 255
38.6476 52.4778 17.4542 0 255 255
38.887 52.457 17.4878 0 255 255
39.1556 52.4739 17.5344 0 255 255
49.7348 62.0569 21.2984 0 255 255
49.6566 61.562 21.182 0 255 255
50.1323 58.3254 20.5974 0 255 255
50.0941 57.9119 20.5068 0 255 255
50.0411 57.4846 20.4111 0 255 255
2.7748 2.26792 0.959762 0 255 255
28.1956 25.3429 8.75986 0 255 255
28.1588 25.1503 8.72384 0 255 255
28.2449 25.0682 8.72609 0 255 255
28.3528 25.0051 8.7351 0 255 255
28.9441 25.3655 8.89269 0 255 255
29.009 25.2616 8.88818 0 255 255
2.79884 2.28756 0.835237 0 255 255
2.76859 2.24757 0.823981 0 255 255
2.76805 2.23274 0.821729 0 255 255
2.78266 2.23013 0.823981 0 255 255
2.79727 2.22744 0.826232 0 255 255
0.91352 0.681909 0.263404 0 255 255
0.884353 0.655821 0.254398 0 255 255
0.87072 0.641481 0.249896 0 255 255
0.872731 0.638743 0.249896 0 255 255
0.874734 0.635998 0.249896 0 255 255
0.868829 0.627541 0.247644 0 255 255
0.878712 0.630489 0.249896 0 255 255
0.880689 0.627726 0.249896 0 255 255
0.882657 0.624956 0.249896 0 255 255
0.884615 0.62218 0.249896 0 255 255
0.886566 0.619397 0.249896 0 255 255
0.888507 0.616609 0.249896 0 255 255
0.89044 0.613815 0.249896 0 255 255
0.892364 0.611014 0.249896 0 255 255
0.894279 0.608208 0.249896 0 255 255
0.89608 0.605552 0.249896 0 255 255
0.897978 0.602734 0.249896 0 255 255
0.899867 0.59991 0.249896 0 255 255
0.901747 0.59708 0.249896 0 255 255
0.903618 0.594244 0.249896 0 255 255
0.905481 0.591402 0.249896 0 255 255
0.89916 0.583252 0.247644 0 255 255
0.909179 0.585701 0.249896 0 255 255
0.911014 0.582842 0.249896 0 255 255
0.912841 0.579977 0.249896 0 255 255
0.914658 0.577107 0.249896 0 255 255
0.916467 0.57423 0.249896 0 255 255
0.909994 0.566201 0.247644 0 255 255
0.920057 0.56846 0.249896 0 255 255
0.921838 0.565567 0.249896 0 255 255
0.92361 0.562669 0.249896 0 255 255
0.925374 0.559764 0.249896 0 255 255
0.927127 0.556854 0.249896 0 255 255
0.937241 0.558929 0.252147 0 255 255
0.930608 0.551018 0.249896 0 255 255
0.940734 0.55303 0.252147 0 255 255
0.942467 0.550071 0.252147 0 255 255
0.93576 0.542223 0.249896 0 255 255
0.945904 0.544139 0.252147 0 255 255
0.939148 0.536333 0.249896 0 255 255
0.940828 0.53338 0.249896 0 255 255
0.950991 0.5352 0.252147 0 255 255
0.952667 0.53221 0.252147 0 255 255
0.954335 0.529214 0.252147 0 255 255
0.955992 0.526213 0.252147 0 255 255
0.94909 0.518536 0.249896 0 255 255
0.950715 0.515552 0.249896 0 255 255
0.95233 0.512562 0.249896 0 255 255
0.953935 0.509568 0.249896 0 255 255
0.96414 0.511132 0.252147 0 255 255
0.965741 0.508101 0.252147 0 255 255
0.967332 0.505064 0.252147 0 255 255
0.960263 0.497541 0.249896 0 255 255
0.970487 0.498976 0.252147 0 255 255
0.972049 0.495925 0.252147 0 255 255
0.973603 0.492869 0.252147 0 255 255
0.96644 0.485434 0.249896 0 255 255
0.97668 0.486742 0.252147 0 255 255
0.978204 0.483671 0.252147 0 255 255
0.979719 0.480596 0.252147 0 255 255
0.981224 0.477516 0.252147 0 255 255
0.98272 0.47443 0.252147 0 255 255
0.984205 0.471341 0.252147 0 255 255
0.985681 0.468247 0.252147 0 255 255
0.987147 0.465148 0.252147 0 255 255
0.99743 0.46617 0.254398 0 255 255
0.99889 0.463034 0.254398 0 255 255
1.00034 0.459893 0.254398 0 255 255
0.992914 0.452707 0.252147 0 255 255
0.994253 0.449758 0.252147 0 255 255
1.00455 0.450621 0.254398 0 255 255
0.997059 0.443502 0.252147 0 255 255
0.998448 0.440368 0.252147 0 255 255
1.00875 0.441133 0.254398 0 255 255
1.01013 0.437962 0.254398 0 255 255
1.01151 0.434786 0.254398 0 255 255
1.0039 0.427786 0.252147 0 255 255
1.01429 0.428245 0.254398 0 255 255
1.01563 0.425057 0.254398 0 255 255
1.01689 0.422041 0.254398 0 255 255
1.01821 0.418844 0.254398 0 255 255
1.01952 0.415643 0.254398 0 255 255
1.02986 0.416088 0.25665 0 255 255
1.02211 0.40923 0.254398 0 255 255
1.02339 0.406016 0.254398 0 255 255
1.02466 0.402799 0.254398 0 255 255
1.02592 0.399578 0.254398 0 255 255
1.03626 0.399861 0.25665 0 255 255
1.03752 0.396604 0.25665 0 255 255
1.02964 0.389892 0.254398 0 255 255
1.03086 0.386655 0.254398 0 255 255
1.04121 0.386807 0.25665 0 255 255
1.05156 0.386899 0.258901 0 255 255
1.04362 0.380258 0.25665 0 255 255
1.04481 0.376977 0.25665 0 255 255
1.05516 0.376971 0.258901 0 255 255
1.04715 0.370406 0.25665 0 255 255
1.05757 0.370149 0.258901 0 255 255
1.05873 0.366825 0.258901 0 255 255
1.05066 0.360336 0.25665 0 255 255
1.06101 0.360165 0.258901 0 255 255
1.06208 0.357016 0.258901 0 255 255
1.06319 0.353678 0.258901 0 255 255
1.0643 0.350336 0.258901 0 255 255
1.0654 0.34699 0.258901 0 255 255
1.06648 0.343642 0.258901 0 255 255
1.06755 0.34029 0.258901 0 255 255
1.07797 0.339676 0.261152 0 255 255
1.07903 0.336287 0.261152 0 255 255
1.07077 0.330026 0.258901 0 255 255
1.08112 0.329501 0.261152 0 255 255
1.08215 0.326104 0.261152 0 255 255
1.08317 0.322702 0.261152 0 255 255
1.08413 0.319486 0.261152 0 255 255
1.08512 0.316079 0.261152 0 255 255
1.08611 0.312669 0.261152 0 255 255
1.08709 0.309255 0.261152 0 255 255
1.09743 0.308475 0.263404 0 255 255
1.0984 0.305025 0.263404 0 255 255
1.0994 0.301381 0.263404 0 255 255
1.09094 0.29538 0.261152 0 255 255
1.10122 0.29466 0.263404 0 255 255
1.10214 0.291199 0.263404 0 255 255
1.10305 0.287735 0.263404 0 255 255
1.10395 0.284268 0.263404 0 255 255
1.10489 0.280606 0.263404 0 255 255
1.11522 0.279502 0.265655 0 255 255
1.11609 0.275997 0.265655 0 255 255
1.12642 0.274798 0.267906 0 255 255
1.12727 0.271259 0.267906 0 255 255
1.12812 0.267716 0.267906 0 255 255
1.11947 0.26195 0.265655 0 255 255
1.12029 0.258432 0.265655 0 255 255
1.12109 0.254911 0.265655 0 255 255
1.13139 0.253519 0.267906 0 255 255
1.12267 0.247863 0.265655 0 255 255
1.13296 0.246405 0.267906 0 255 255
1.13373 0.242845 0.267906 0 255 255
1.13449 0.239281 0.267906 0 255 255
1.14478 0.237698 0.270158 0 255 255
1.14552 0.2341 0.270158 0 255 255
1.1558 0.23242 0.272409 0 255 255
1.15653 0.228788 0.272409 0 255 255
1.15724 0.225154 0.272409 0 255 255
1.16751 0.223348 0.27466 0 255 255
1.15863 0.217878 0.272409 0 255 255
1.15931 0.214237 0.272409 0 255 255
1.15998 0.210594 0.272409 0 255 255
1.16063 0.206949 0.272409 0 255 255
1.17087 0.204982 0.27466 0 255 255
1.16191 0.199653 0.272409 0 255 255
1.16253 0.196001 0.272409 0 255 255
1.17275 0.193938 0.27466 0 255 255
1.18297 0.191812 0.276912 0 255 255
1.17395 0.186566 0.27466 0 255 255
1.18416 0.184375 0.276912 0 255 255
1.18473 0.180654 0.276912 0 255 255
1.17566 0.175493 0.27466 0 255 255
1.19548 0.174615 0.279163 0 255 255
1.18638 0.16948 0.276912 0 255 255
1.18691 0.165753 0.276912 0 255 255
1.19708 0.16334 0.279163 0 255 255
1.19758 0.159579 0.279163 0 255 255
1.20774 0.157072 0.281414 0 255 255
1.19856 0.152051 0.279163 0 255 255
1.2087 0.149481 0.281414 0 255 255
1.19949 0.144517 0.279163 0 255 255
1.20962 0.141883 0.281414 0 255 255
1.21974 0.139187 0.283665 0 255 255
1.21048 0.13428 0.281414 0 255 255
1.2109 0.130477 0.281414 0 255 255
1.21133 0.12646 0.281414 0 255 255
1.22141 0.123636 0.283665 0 255 255
1.21208 0.119059 0.281414 0 255 255
1.22214 0.116172 0.283665 0 255 255
1.2225 0.112332 0.283665 0 255 255
1.22285 0.108491 0.283665 0 255 255
1.23289 0.10548 0.285917 0 255 255
1.23322 0.101606 0.285917 0 255 255
1.23355 0.097515 0.285917 0 255 255
1.23385 0.09364 0.285917 0 255 255
1.24385 0.09047 0.288168 0 255 255
1.24413 0.086562 0.288168 0 255 255
1.2444 0.082653 0.288168 0 255 255
1.24465 0.078743 0.288168 0 255 255
1.24489 0.074833 0.288168 0 255 255
1.25485 0.071476 0.290419 0 255 255
1.24534 0.067009 0.288168 0 255 255
1.25527 0.06359 0.290419 0 255 255
1.25547 0.059645 0.290419 0 255 255
1.25565 0.055701 0.290419 0 255 255
1.26555 0.052158 0.292671 0 255 255
1.26571 0.048181 0.292671 0 255 255
1.26585 0.044205 0.292671 0 255 255
1.26599 0.040227 0.292671 0 255 255
1.27585 0.036529 0.294922 0 255 255
1.27596 0.032521 0.294922 0 255 255
1.27605 0.028512 0.294922 0 255 255
1.27613 0.024503 0.294922 0 255 255
1.28595 0.02065 0.297173 0 255 255
1.27626 0.016484 0.294922 0 255 255
1.27631 0.012475 0.294922 0 255 255
1.27634 0.008465 0.294922 0 255 255
1.28611 0.004489 0.297173 0 255 255
1.28611 0.000449 0.297173 0 255 255
1.28611 -0.003592 0.297173 0 255 255
1.28609 -0.007632 0.297173 0 255 255
1.2958 -0.011761 0.299425 0 255 255
1.29576 -0.015831 0.299425 0 255 255
1.2957 -0.020128 0.299425 0 255 255
1.29563 -0.024199 0.299425 0 255 255
1.30529 -0.028482 0.301676 0 255 255
1.30519 -0.032582 0.301676 0 255 255
1.31482 -0.036956 0.303927 0 255 255
1.30496 -0.040782 0.301676 0 255 255
1.31457 -0.045217 0.303927 0 255 255
1.31442 -0.049346 0.303927 0 255 255
1.32399 -0.053871 0.306179 0 255 255
1.31408 -0.057604 0.303927 0 255 255
1.32363 -0.062189 0.306179 0 255 255
1.33316 -0.066835 0.30843 0 255 255
1.33294 -0.071023 0.30843 0 255 255
1.33271 -0.07521 0.30843 0 255 255
1.33247 -0.079396 0.30843 0 255 255
1.35166 -0.084802 0.312933 0 255 255
1.35139 -0.089048 0.312933 0 255 255
1.36082 -0.093964 0.315184 0 255 255
1.37024 -0.098941 0.317435 0 255 255
1.3602 -0.102513 0.315184 0 255 255
1.36959 -0.107548 0.317435 0 255 255
9.16712 -0.748843 2.12524 0 255 255
9.14531 -0.775991 2.12074 0 255 255
9.13312 -0.803864 2.11849 0 255 255
9.13055 -0.832552 2.11849 0 255 255
9.14729 -0.863063 2.12299 0 255 255
9.14453 -0.891796 2.12299 0 255 255
9.15138 -0.921496 2.12524 0 255 255
9.14844 -0.950241 2.12524 0 255 255
9.1551 -0.980014 2.12749 0 255 255
9.16166 -1.00984 2.12974 0 255 255
9.16812 -1.03971 2.13199 0 255 255
9.16463 -1.07011 2.13199 0 255 255
9.17089 -1.10006 2.13424 0 255 255
9.17706 -1.13005 2.1365 0 255 255
9.17347 -1.15888 2.1365 0 255 255
9.17944 -1.18894 2.13875 0 255 255
9.18532 -1.21906 2.141 0 255 255
9.1911 -1.24922 2.14325 0 255 255
9.19678 -1.27943 2.1455 0 255 255
9.19272 -1.30832 2.1455 0 255 255
9.18856 -1.33719 2.1455 0 255 255
9.20359 -1.36892 2.15 0 255 255
9.20887 -1.39929 2.15226 0 255 255
9.20443 -1.42821 2.15226 0 255 255
9.20953 -1.45864 2.15451 0 255 255
9.21452 -1.48913 2.15676 0 255 255
9.20018 -1.51648 2.15451 0 255 255
9.20498 -1.54699 2.15676 0 255 255
9.21928 -1.57919 2.16126 0 255 255
9.21399 -1.60976 2.16126 0 255 255
9.22807 -1.64211 2.16576 0 255 255
9.23246 -1.67283 2.16802 0 255 255
9.23674 -1.70359 2.17027 0 255 255
9.24092 -1.7344 2.17252 0 255 255
9.23542 -1.76342 2.17252 0 255 255
9.24897 -1.79614 2.17702 0 255 255
9.24328 -1.82519 2.17702 0 255 255
9.24705 -1.85614 2.17927 0 255 255
9.25072 -1.88713 2.18152 0 255 255
9.26383 -1.92013 2.18602 0 255 255
9.25775 -1.94923 2.18602 0 255 255
9.26111 -1.98034 2.18828 0 255 255
9.26436 -2.01149 2.19053 0 255 255
9.26751 -2.04268 2.19278 0 255 255
9.27056 -2.07391 2.19503 0 255 255
9.2925 -2.1095 2.20178 0 255 255
9.30482 -2.14305 2.20629 0 255 255
9.27944 -2.16622 2.20178 0 255 255
9.26311 -2.19312 2.19953 0 255 255
9.29329 -2.23455 2.20854 0 255 255
9.28622 -2.26374 2.20854 0 255 255
9.17502 -2.26719 2.18377 0 255 255
9.14895 -2.29127 2.17927 0 255 255
9.27392 -2.35355 2.21079 0 255 255
9.27592 -2.3851 2.21304 0 255 255
9.10809 -2.37248 2.17477 0 255 255
9.28901 -2.45079 2.21979 0 255 255
9.24361 -2.4699 2.21079 0 255 255
9.2264 -2.49639 2.20854 0 255 255
9.23731 -2.53051 2.21304 0 255 255
9.21054 -2.55431 2.20854 0 255 255
9.33334 -2.62173 2.24006 0 255 255
8.96892 -2.54979 2.15451 0 255 255
8.96132 -2.57639 2.15451 0 255 255
9.31804 -2.71067 2.24231 0 255 255
9.0945 -2.67666 2.19053 0 255 255
8.89929 -2.64961 2.1455 0 255 255
9.31025 -2.80561 2.24681 0 255 255
9.24588 -2.8497 2.23555 0 255 255
9.33002 -2.93995 2.26032 0 255 255
9.36715 -2.98404 2.27157 0 255 255
8.64361 -2.78348 2.09822 0 255 255
8.57968 -2.82251 2.08697 0 255 255
9.373 -3.21458 2.28959 0 255 255
8.47905 -2.93779 2.07346 0 255 255
9.40469 -3.35996 2.3076 0 255 255
9.39224 -3.5903 2.32335 0 255 255
9.44148 -3.67918 2.34137 0 255 255
9.43895 -3.71239 2.34362 0 255 255
8.11413 -3.2208 2.01718 0 255 255
8.08588 -3.23903 2.01267 0 255 255
8.05634 -3.28609 2.01042 0 255 255
7.87428 -3.4173 1.98341 0 255 255
9.46597 -4.17894 2.39089 0 255 255
9.48396 -4.25828 2.40215 0 255 255
9.50134 -4.33802 2.41341 0 255 255
7.56687 -3.68897 1.94513 0 255 255
7.5465 -3.70843 1.94288 0 255 255
7.47946 -3.73401 1.93163 0 255 255
7.45029 -3.74873 1.92712 0 255 255
9.55413 -4.9207 2.4832 0 255 255
9.55592 -4.95967 2.4877 0 255 255
9.55668 -5.00036 2.4922 0 255 255
9.57027 -5.16168 2.51247 0 255 255
9.58039 -5.24511 2.52372 0 255 255
9.59799 -5.294 2.53273 0 255 255
9.58982 -5.32886 2.53498 0 255 255
9.59854 -5.37324 2.54173 0 255 255
9.59859 -5.41294 2.54624 0 255 255
9.59848 -5.45269 2.55074 0 255 255
9.5813 -5.48282 2.55074 0 255 255
9.61468 -5.54209 2.56424 0 255 255
9.60564 -5.57716 2.5665 0 255 255
9.59649 -5.61223 2.56875 0 255 255
8.5957 -5.06527 2.30535 0 255 255
8.52109 -5.05744 2.28959 0 255 255
8.50516 -5.08419 2.28959 0 255 255
8.39806 -5.09206 2.26932 0 255 255
8.24971 -5.07327 2.2378 0 255 255
8.07777 -5.07307 2.20404 0 255 255
7.59017 -5.10808 2.11398 0 255 255
7.54182 -5.11004 2.10498 0 255 255
7.46939 -5.09527 2.08922 0 255 255
7.42836 -5.10346 2.08246 0 255 255
7.38024 -5.1046 2.07346 0 255 255
7.34018 -5.11106 2.0667 0 255 255
7.30015 -5.11732 2.05995 0 255 255
7.23627 -5.10652 2.04644 0 255 255
7.18048 -5.10101 2.03519 0 255 255
9.35971 -6.69348 2.6588 0 255 255
7.09294 -5.10618 2.01943 0 255 255
7.05319 -5.11129 2.01267 0 255 255
7.00561 -5.11045 2.00367 0 255 255
6.94936 -5.10482 1.99241 0 255 255
6.92546 -5.12083 1.99016 0 255 255
6.86244 -5.10766 1.97665 0 255 255
6.83076 -5.11751 1.97215 0 255 255
6.78354 -5.11548 1.96315 0 255 255
6.72087 -5.10142 1.94964 0 255 255
6.67384 -5.09885 1.94063 0 255 255
9.13708 -7.02634 2.6633 0 255 255
9.10726 -7.04905 2.66105 0 255 255
6.564 -5.11362 1.92262 0 255 255
9.03917 -7.13615 2.66105 0 255 255
9.01671 -7.16451 2.66105 0 255 255
8.98655 -7.18671 2.6588 0 255 255
8.97151 -7.22102 2.66105 0 255 255
8.94121 -7.24304 2.6588 0 255 255
8.91715 -7.27265 2.6588 0 255 255
8.90178 -7.30681 2.66105 0 255 255
8.87879 -7.33474 2.66105 0 255 255
8.8557 -7.36259 2.66105 0 255 255
8.82505 -7.38413 2.6588 0 255 255
8.80926 -7.41809 2.66105 0 255 255
8.78592 -7.44573 2.66105 0 255 255
8.76248 -7.47329 2.66105 0 255 255
8.73896 -7.50078 2.66105 0 255 255
7.38276 -6.41774 2.26032 0 255 255
7.37723 -6.45373 2.26482 0 255 255
7.33498 -6.45756 2.25807 0 255 255
7.28549 -6.45473 2.24906 0 255 255
7.2495 -6.46588 2.24456 0 255 255
7.2074 -6.4691 2.2378 0 255 255
7.16535 -6.47212 2.23105 0 255 255
7.12335 -6.47494 2.2243 0 255 255
7.08141 -6.47755 2.21754 0 255 255
7.04668 -6.48657 2.21304 0 255 255
7.01197 -6.49543 2.20854 0 255 255
6.97015 -6.4975 2.20178 0 255 255
6.92015 -6.49391 2.19278 0 255 255
6.88555 -6.50224 2.18828 0 255 255
6.8439 -6.5037 2.18152 0 255 255
6.80935 -6.5117 2.17702 0 255 255
6.7678 -6.51279 2.17027 0 255 255
6.7263 -6.51369 2.16351 0 255 255
6.69185 -6.52119 2.15901 0 255 255
6.65046 -6.52171 2.15226 0 255 255
6.61493 -6.53004 2.14775 0 255 255
6.58056 -6.53706 2.14325 0 255 255
6.53932 -6.53703 2.1365 0 255 255
6.50501 -6.54373 2.13199 0 255 255
6.46388 -6.54333 2.12524 0 255 255
6.42964 -6.5497 2.12074 0 255 255
6.39542 -6.55592 2.11623 0 255 255
6.39514 -6.59697 2.12299 0 255 255
6.40818 -6.65211 2.13424 0 255 255
6.40746 -6.69333 2.141 0 255 255
6.41209 -6.74278 2.15 0 255 255
6.41764 -6.79122 2.15901 0 255 255
6.42296 -6.83975 2.16802 0 255 255
6.42803 -6.88839 2.17702 0 255 255
6.43286 -6.93713 2.18602 0 255 255
6.43744 -6.98597 2.19503 0 255 255
6.44836 -7.04208 2.20629 0 255 255
6.45244 -7.09113 2.21529 0 255 255
6.45626 -7.14028 2.2243 0 255 255
6.46636 -7.19676 2.23555 0 255 255
6.46841 -7.24724 2.24456 0 255 255
6.47147 -7.29669 2.25357 0 255 255
6.47428 -7.34622 2.26257 0 255 255
6.48327 -7.40317 2.27383 0 255 255
6.48556 -7.4529 2.28283 0 255 255
6.49398 -7.51009 2.29409 0 255 255
6.50078 -7.56854 2.30535 0 255 255
6.5086 -7.62598 2.3166 0 255 255
6.50982 -7.67611 2.32561 0 255 255
6.51706 -7.73378 2.33686 0 255 255
6.53026 -7.79904 2.35037 0 255 255
6.53066 -7.84947 2.35938 0 255 255
6.537 -7.9075 2.37063 0 255 255
7.30373 -8.8917 2.6588 0 255 255
7.29424 -8.93725 2.66556 0 255 255
7.27226 -8.96769 2.66781 0 255 255
7.23637 -8.98417 2.66556 0 255 255
7.2142 -9.01447 2.66781 0 255 255
7.18585 -9.03708 2.66781 0 255 255
7.15138 -9.05197 2.66556 0 255 255
7.12892 -9.08206 2.66781 0 255 255
7.10036 -9.10441 2.66781 0 255 255
7.07172 -9.12667 2.66781 0 255 255
7.04301 -9.14884 2.66781 0 255 255
7.01855 -9.17989 2.67006 0 255 255
6.98968 -9.20189 2.67006 0 255 255
6.96073 -9.2238 2.67006 0 255 255
4.99131 -6.65747 1.92262 0 255 255
4.98201 -6.68875 1.92712 0 255 255
4.97256 -6.72003 1.93163 0 255 255
4.95602 -6.74434 1.93388 0 255 255
4.9463 -6.77561 1.93838 0 255 255
4.93643 -6.80689 1.94288 0 255 255
6.93114 -9.62088 2.73985 0 255 255
4.9049 -6.85362 1.94739 0 255 255
6.84797 -9.63248 2.73084 0 255 255
4.87298 -6.90022 1.95189 0 255 255
4.85688 -6.92347 1.95414 0 255 255
4.8351 -6.9387 1.95414 0 255 255
4.81883 -6.96186 1.95639 0 255 255
4.80123 -6.98584 1.95864 0 255 255
4.78476 -7.00893 1.96089 0 255 255
4.76271 -7.02393 1.96089 0 255 255
4.75151 -7.05502 1.9654 0 255 255
4.72932 -7.06991 1.9654 0 255 255
6.43248 -9.68166 2.68582 0 255 255
4.70627 -7.13202 1.9744 0 255 255
4.68918 -7.15491 1.97665 0 255 255
4.64133 -7.2324 1.98566 0 255 255
6.10766 -9.71759 2.65205 0 255 255
6.06508 -9.72126 2.64754 0 255 255
4.5618 -7.36317 2.00142 0 255 255
5.98857 -9.73428 2.64079 0 255 255
5.90707 -9.73839 2.63178 0 255 255
5.86137 -9.73186 2.62503 0 255 255
5.83077 -9.75023 2.62503 0 255 255
4.42454 -7.55958 2.02393 0 255 255
5.50079 -9.75039 2.58676 0 255 255
5.47489 -9.77612 2.58901 0 255 255
5.40394 -9.79327 2.58451 0 255 255
5.31733 -9.78516 2.57325 0 255 255
5.27731 -9.78466 2.56875 0 255 255
5.16669 -9.79949 2.55974 0 255 255
5.09432 -9.81535 2.55524 0 255 255
5.059 -9.82265 2.55299 0 255 255
5.01925 -9.82114 2.54849 0 255 255
4.98396 -9.82817 2.54624 0 255 255
4.94868 -9.83508 2.54398 0 255 255
4.10393 -8.22044 2.12299 0 255 255
4.08674 -8.25075 2.12749 0 255 255
4.09372 -8.33422 2.1455 0 255 255
4.05898 -8.32952 2.141 0 255 255
4.03703 -8.351 2.14325 0 255 255
4.0192 -8.38122 2.14775 0 255 255
4.62754 -9.80735 2.50571 0 255 255
4.6091 -9.84832 2.51247 0 255 255
4.54713 -9.87708 2.51247 0 255 255
4.43615 -9.88472 2.50346 0 255 255
4.39319 -9.8719 2.49671 0 255 255
4.25552 -9.90022 2.48995 0 255 255
4.22057 -9.90458 2.4877 0 255 255
3.97467 -9.93236 2.47194 0 255 255
3.91831 -9.8814 2.45618 0 255 255
3.85615 -9.90583 2.45618 0 255 255
3.76088 -9.94239 2.45618 0 255 255
3.72279 -9.9359 2.45168 0 255 255
3.68139 -9.92015 2.44493 0 255 255
3.66029 -9.9591 2.45168 0 255 255
3.61725 -9.94371 2.44493 0 255 255
3.56288 -9.89086 2.42917 0 255 255
3.55143 -9.95707 2.44268 0 255 255
3.52013 -9.96817 2.44268 0 255 255
3.47272 -9.9332 2.43142 0 255 255
3.41919 -9.87961 2.41566 0 255 255
3.4085 -9.95542 2.43142 0 255 255
3.37721 -9.96608 2.43142 0 255 255
3.34898 -9.98587 2.43367 0 255 255
3.31452 -9.9871 2.43142 0 255 255
3.28313 -9.99746 2.43142 0 255 255
3.25171 -10.0077 2.43142 0 255 255
3.21727 -10.0086 2.42917 0 255 255
3.18581 -10.0187 2.42917 0 255 255
3.1514 -10.0193 2.42692 0 255 255
3.11701 -10.0199 2.42466 0 255 255
3.0809 -10.0209 2.42241 0 255 255
3.04941 -10.0305 2.42241 0 255 255
3.01507 -10.0307 2.42016 0 255 255
2.98077 -10.0308 2.41791 0 255 255
2.94925 -10.0401 2.41791 0 255 255
2.91769 -10.0493 2.41791 0 255 255
2.88166 -10.0496 2.41566 0 255 255
2.85008 -10.0586 2.41566 0 255 255
2.81408 -10.0586 2.41341 0 255 255
2.77987 -10.058 2.41116 0 255 255
2.74826 -10.0667 2.41116 0 255 255
2.71662 -10.0752 2.41116 0 255 255
2.68245 -10.0743 2.40891 0 255 255
2.65078 -10.0827 2.40891 0 255 255
2.61665 -10.0815 2.40665 0 255 255
2.58255 -10.0803 2.4044 0 255 255
2.55087 -10.0883 2.4044 0 255 255
2.51916 -10.0963 2.4044 0 255 255
2.4851 -10.0947 2.40215 0 255 255
2.45108 -10.093 2.3999 0 255 255
2.41759 -10.1011 2.3999 0 255 255
2.38361 -10.0991 2.39765 0 255 255
2.35187 -10.1066 2.39765 0 255 255
2.31793 -10.1044 2.3954 0 255 255
2.28402 -10.1021 2.39315 0 255 255
2.2544 -10.1188 2.3954 0 255 255
2.22051 -10.1163 2.39315 0 255 255
2.18666 -10.1137 2.39089 0 255 255
2.15311 -10.1209 2.39089 0 255 255
2.1193 -10.1181 2.38864 0 255 255
2.0875 -10.1247 2.38864 0 255 255
2.05569 -10.1312 2.38864 0 255 255
2.02017 -10.1284 2.38639 0 255 255
1.98834 -10.1347 2.38639 0 255 255
1.9565 -10.1409 2.38639 0 255 255
1.92463 -10.147 2.38639 0 255 255
1.89274 -10.153 2.38639 0 255 255
1.86083 -10.1589 2.38639 0 255 255
1.82719 -10.1551 2.38414 0 255 255
1.79527 -10.1608 2.38414 0 255 255
1.76334 -10.1663 2.38414 0 255 255
1.7314 -10.1718 2.38414 0 255 255
1.69783 -10.1676 2.38189 0 255 255
1.66588 -10.1729 2.38189 0 255 255
1.63059 -10.1687 2.37964 0 255 255
1.60015 -10.1834 2.38189 0 255 255
1.56667 -10.1788 2.37964 0 255 255
1.53468 -10.1837 2.37964 0 255 255
1.50268 -10.1884 2.37964 0 255 255
1.47066 -10.1931 2.37964 0 255 255
1.43685 -10.1979 2.37964 0 255 255
1.40481 -10.2024 2.37964 0 255 255
1.37275 -10.2068 2.37964 0 255 255
1.34068 -10.211 2.37964 0 255 255
1.30681 -10.2154 2.37964 0 255 255
1.27471 -10.2195 2.37964 0 255 255
1.2426 -10.2234 2.37964 0 255 255
1.20933 -10.2176 2.37739 0 255 255
1.17723 -10.2213 2.37739 0 255 255
1.14511 -10.225 2.37739 0 255 255
1.11298 -10.2285 2.37739 0 255 255
1.08084 -10.232 2.37739 0 255 255
1.04691 -10.2355 2.37739 0 255 255
1.01474 -10.2387 2.37739 0 255 255
0.983504 -10.2516 2.37964 0 255 255
0.292877 -3.52467 0.817227 0 255 255
0.286461 -3.58384 0.830735 0 255 255
0.2752 -3.58472 0.830735 0 255 255
0.263222 -3.57585 0.828483 0 255 255
0.252671 -3.58638 0.830735 0 255 255
0.130703 -2.1493 0.49754 0 255 255
0.12339 -2.13997 0.495289 0 255 255
0.116666 -2.14035 0.495289 0 255 255
0.108942 -2.12124 0.490786 0 255 255
0.102278 -2.12157 0.490786 0 255 255
0.094368 -2.10243 0.486284 0 255 255
0.087356 -2.09298 0.484032 0 255 255
0.08078 -2.09325 0.484032 0 255 255
0.074204 -2.09349 0.484032 0 255 255
0.067312 -2.08398 0.481781 0 255 255
0.060481 -2.07444 0.47953 0 255 255
0.053963 -2.07462 0.47953 0 255 255
0.047223 -2.06504 0.477278 0 255 255
0.040735 -2.06517 0.477278 0 255 255
0.033924 -2.04581 0.472776 0 255 255
0.027269 -2.05565 0.475027 0 255 255
0.020811 -2.05573 0.475027 0 255 255
0.014216 -2.0363 0.470524 0 255 255
0.007819 -2.03633 0.470524 0 255 255
0.001066 -2.03635 0.470524 0 255 255
-0.005331 -2.03634 0.470524 0 255 255
-0.011728 -2.03631 0.470524 0 255 255
-0.018125 -2.03627 0.470524 0 255 255
-0.024523 -2.0362 0.470524 0 255 255
-0.03092 -2.03611 0.470524 0 255 255
-0.037137 -2.02626 0.468273 0 255 255
-0.043503 -2.02614 0.468273 0 255 255
-0.04998 -2.01624 0.466022 0 255 255
-0.056586 -2.02581 0.468273 0 255 255
-0.062647 -2.01589 0.466022 0 255 255
-0.069313 -2.02542 0.468273 0 255 255
-0.075312 -2.01545 0.466022 0 255 255
-0.082038 -2.02494 0.468273 0 255 255
-0.088399 -2.02467 0.468273 0 255 255
-0.094304 -2.01465 0.466022 0 255 255
-0.101472 -2.02406 0.468273 0 255 255
-0.10783 -2.02373 0.468273 0 255 255
-0.114187 -2.02338 0.468273 0 255 255
-0.120544 -2.02302 0.468273 0 255 255
-0.127251 -2.0226 0.468273 0 255 255
-0.134248 -2.03192 0.470524 0 255 255
-0.14063 -2.03149 0.470524 0 255 255
-0.147011 -2.03103 0.470524 0 255 255
-0.153391 -2.03056 0.470524 0 255 255
-0.15977 -2.03007 0.470524 0 255 255
-0.166147 -2.02956 0.470524 0 255 255
-0.173348 -2.03873 0.472776 0 255 255
-0.180965 -2.04785 0.475027 0 255 255
-0.186509 -2.03757 0.472776 0 255 255
-0.194747 -2.05638 0.477278 0 255 255
-0.200257 -2.04606 0.475027 0 255 255
-0.207664 -2.05511 0.477278 0 255 255
-0.214119 -2.05445 0.477278 0 255 255
-0.221972 -2.06341 0.47953 0 255 255
-0.229526 -2.07239 0.481781 0 255 255
-0.237139 -2.08134 0.484032 0 255 255
-0.24481 -2.09026 0.486284 0 255 255
-0.252539 -2.09916 0.488535 0 255 255
-0.259132 -2.09835 0.488535 0 255 255
-0.268542 -2.11681 0.493038 0 255 255
-0.276447 -2.12562 0.495289 0 255 255
-0.491338 -3.60088 0.83974 0 255 255
-0.512082 -3.66686 0.855499 0 255 255
-0.523599 -3.66524 0.855499 0 255 255
-0.535111 -3.66357 0.855499 0 255 255
-0.546617 -3.66188 0.855499 0 255 255
-0.560228 -3.66967 0.85775 0 255 255
-0.571754 -3.6679 0.85775 0 255 255
-0.583274 -3.66608 0.85775 0 255 255
-0.59635 -3.67385 0.860002 0 255 255
-0.607889 -3.67196 0.860002 0 255 255
-0.621043 -3.67964 0.862253 0 255 255
-0.6326 -3.67767 0.862253 0 255 255
-0.64415 -3.67566 0.862253 0 255 255
-0.658049 -3.6831 0.864504 0 255 255
-0.669617 -3.68101 0.864504 0 255 255
-0.682952 -3.68847 0.866756 0 255 255
-0.692732 -3.67673 0.864504 0 255 255
-0.704279 -3.67454 0.864504 0 255 255
-0.71582 -3.67231 0.864504 0 255 255
-1.48442 -7.48318 1.76278 0 255 255
-1.50793 -7.47848 1.76278 0 255 255
-1.53337 -7.48325 1.76503 0 255 255
-1.55886 -7.48794 1.76728 0 255 255
-1.58439 -7.49253 1.76953 0 255 255
-1.60792 -7.48752 1.76953 0 255 255
-1.63351 -7.49195 1.77178 0 255 255
-1.65914 -7.49629 1.77403 0 255 255
-1.68482 -7.50055 1.77629 0 255 255
-1.71054 -7.50472 1.77854 0 255 255
-1.73542 -7.49901 1.77854 0 255 255
-1.76119 -7.50301 1.78079 0 255 255
-1.78476 -7.49744 1.78079 0 255 255
-1.81059 -7.50126 1.78304 0 255 255
-1.83646 -7.505 1.78529 0 255 255
-1.86238 -7.50865 1.78754 0 255 255
-1.88964 -7.51188 1.78979 0 255 255
-1.91323 -7.50591 1.78979 0 255 255
-1.93924 -7.5093 1.79204 0 255 255
-1.96775 -7.52202 1.79655 0 255 255
-3.1255 -11.6401 2.78487 0 255 255
-3.16972 -11.6585 2.79163 0 255 255
-3.20891 -11.6578 2.79388 0 255 255
-3.24552 -11.6477 2.79388 0 255 255
-3.2821 -11.6374 2.79388 0 255 255
-3.31864 -11.6271 2.79388 0 255 255
-3.36056 -11.6353 2.79838 0 255 255
-3.39163 -11.606 2.79388 0 255 255
-3.43084 -11.6046 2.79613 0 255 255
-3.46728 -11.5938 2.79613 0 255 255
-3.50086 -11.5735 2.79388 0 255 255
-3.54208 -11.5712 2.79613 0 255 255
-3.58129 -11.5693 2.79838 0 255 255
-3.61471 -11.5487 2.79613 0 255 255
-1.21111 -3.82718 0.927541 0 255 255
-3.69515 -11.5437 2.80063 0 255 255
-3.7314 -11.532 2.80063 0 255 255
-3.76458 -11.5109 2.79838 0 255 255
-3.80378 -11.5083 2.80063 0 255 255
-3.83992 -11.4963 2.80063 0 255 255
-3.87602 -11.4842 2.80063 0 255 255
-3.91408 -11.4713 2.80063 0 255 255
-3.95645 -11.4773 2.80514 0 255 255
-3.98608 -11.4465 2.80063 0 255 255
-4.02525 -11.4431 2.80289 0 255 255
-4.07096 -11.4579 2.80964 0 255 255
-4.10365 -11.4359 2.80739 0 255 255
-4.13823 -11.4131 2.80514 0 255 255
-4.18411 -11.4274 2.81189 0 255 255
-1.42243 -3.8474 0.947803 0 255 255
-1.43451 -3.84291 0.947803 0 255 255
-4.16449 -11.0502 2.72859 0 255 255
-4.20265 -11.0461 2.73084 0 255 255
-4.40228 -11.3556 2.81414 0 255 255
-4.43281 -11.3228 2.80964 0 255 255
-4.4791 -11.336 2.81639 0 255 255
-4.51108 -11.3129 2.81414 0 255 255
-4.58941 -11.3023 2.81864 0 255 255
-4.63474 -11.0095 2.76011 0 255 255
-4.65026 -10.95 2.74885 0 255 255
-4.68081 -10.9264 2.7466 0 255 255
-4.71511 -10.9116 2.7466 0 255 255
-4.75127 -10.8959 2.7466 0 255 255
-4.77763 -10.8631 2.7421 0 255 255
-4.81963 -10.8659 2.7466 0 255 255
-4.85773 -10.8596 2.74885 0 255 255
-4.89182 -10.8443 2.74885 0 255 255
-4.92989 -10.8377 2.75111 0 255 255
-4.96392 -10.8222 2.75111 0 255 255
-4.9938 -10.7977 2.74885 0 255 255
-5.03593 -10.7996 2.75336 0 255 255
-5.07813 -10.8014 2.75786 0 255 255
-5.11809 -10.7933 2.76011 0 255 255
-1.84059 -3.85023 0.986075 0 255 255
-5.21542 -10.8223 2.77587 0 255 255
-5.26642 -10.8409 2.78487 0 255 255
-5.30474 -10.8331 2.78713 0 255 255
-5.34737 -10.8339 2.79163 0 255 255
-5.3944 -10.8432 2.79838 0 255 255
-5.43717 -10.8436 2.80289 0 255 255
-5.48629 -10.8516 2.80964 0 255 255
-5.53804 -10.869 2.81864 0 255 255
-5.58107 -10.8689 2.82315 0 255 255
-5.61966 -10.86 2.8254 0 255 255
-0.13067 -0.157449 0.047278 0 255 255
-0.132148 -0.15621 0.047278 0 255 255
-0.145271 -0.170632 0.05178 0 255 255
-0.152145 -0.177574 0.054032 0 255 255
-0.152702 -0.177095 0.054032 0 255 255
-0.159676 -0.183945 0.056283 0 255 255
-0.153843 -0.176105 0.054032 0 255 255
-0.167262 -0.190256 0.058534 0 255 255
-0.161402 -0.182432 0.056283 0 255 255
-0.174933 -0.196478 0.060785 0 255 255
-0.169047 -0.188671 0.058534 0 255 255
-0.176164 -0.195375 0.060785 0 255 255
-0.176777 -0.194821 0.060785 0 255 255
-0.190564 -0.208621 0.065288 0 255 255
-0.184625 -0.200848 0.063037 0 255 255
-0.191871 -0.20742 0.065288 0 255 255
-0.185883 -0.199684 0.063037 0 255 255
-0.193171 -0.20621 0.065288 0 255 255
-0.193817 -0.205602 0.065288 0 255 255
-0.194462 -0.204992 0.065288 0 255 255
-0.201833 -0.211428 0.067539 0 255 255
-0.209284 -0.217783 0.069791 0 255 255
-0.203194 -0.21012 0.067539 0 255 255
-0.210649 -0.216463 0.069791 0 255 255
-0.204511 -0.208839 0.067539 0 255 255
-0.198327 -0.201256 0.065288 0 255 255
-0.212679 -0.214469 0.069791 0 255 255
-0.213389 -0.213762 0.069791 0 255 255
-0.207155 -0.206217 0.067539 0 255 255
-0.207801 -0.205565 0.067539 0 255 255
-0.208446 -0.204911 0.067539 0 255 255
-0.223028 -0.217872 0.072042 0 255 255
-0.216721 -0.210384 0.069791 0 255 255
-0.210368 -0.202937 0.067539 0 255 255
-0.211005 -0.202276 0.067539 0 255 255
-0.218694 -0.208332 0.069791 0 255 255
-0.226423 -0.214342 0.072042 0 255 255
-0.23423 -0.220265 0.074293 0 255 255
-0.199327 -0.186266 0.063037 0 255 255
-0.23561 -0.218789 0.074293 0 255 255
-0.243456 -0.224655 0.076545 0 255 255
-0.23698 -0.217304 0.074293 0 255 255
-0.244863 -0.223121 0.076545 0 255 255
-0.245563 -0.222351 0.076545 0 255 255
-0.253503 -0.228095 0.078796 0 255 255
-0.254218 -0.227298 0.078796 0 255 255
-0.240364 -0.213555 0.074293 0 255 255
-0.241071 -0.212757 0.074293 0 255 255
-0.241738 -0.211998 0.074293 0 255 255
-0.249748 -0.217639 0.076545 0 255 255
-0.243065 -0.210475 0.074293 0 255 255
-0.251111 -0.216066 0.076545 0 255 255
-0.251788 -0.215276 0.076545 0 255 255
-0.252501 -0.214439 0.076545 0 255 255
-0.253173 -0.213645 0.076545 0 255 255
-0.246377 -0.206588 0.074293 0 255 255
-0.254511 -0.21205 0.076545 0 255 255
-0.24767 -0.205036 0.074293 0 255 255
-0.263363 -0.216636 0.078796 0 255 255
-0.248954 -0.203476 0.074293 0 255 255
-0.249592 -0.202693 0.074293 0 255 255
-0.242645 -0.19579 0.072042 0 255 255
-0.258462 -0.207215 0.076545 0 255 255
-0.266733 -0.212473 0.078796 0 255 255
-0.259759 -0.205587 0.076545 0 255 255
-0.260439 -0.204725 0.076545 0 255 255
-0.253402 -0.197908 0.074293 0 255 255
-0.254023 -0.197111 0.074293 0 255 255
-0.239208 -0.184415 0.069791 0 255 255
-0.247521 -0.189587 0.072042 0 255 255
-0.255869 -0.194709 0.074293 0 255 255
-0.25648 -0.193904 0.074293 0 255 255
-0.249297 -0.187246 0.072042 0 255 255
