ply
format ascii 1.0
element vertex 1312
property float x
property float y
property float z
property uchar red
property uchar green
property uchar blue
end_header
-0.534154 0.196742 0.029529 0 255 255
-0.533533 0.198419 0.029529 0 255 255
-0.523558 0.196584 0.029011 0 255 255
-0.532276 0.201768 0.029529 0 255 255
-0.53164 0.203439 0.029529 0 255 255
-0.530998 0.205108 0.029529 0 255 255
-0.521046 0.203148 0.029011 0 255 255
-0.529699 0.20844 0.029529 0 255 255
-0.529041 0.210103 0.029529 0 255 255
-0.528379 0.211764 0.029529 0 255 255
-0.546227 0.220912 0.030566 0 255 255
-0.536284 0.218853 0.030048 0 255 255
-0.544828 0.22434 0.030566 0 255 255
-0.544121 0.22605 0.030566 0 255 255
-0.543408 0.227758 0.030566 0 255 255
-0.533491 0.225575 0.030048 0 255 255
-0.541966 0.231168 0.030566 0 255 255
-0.541237 0.23287 0.030566 0 255 255
-0.549664 0.238544 0.031084 0 255 255
-0.530615 0.232261 0.030048 0 255 255
-0.539018 0.23796 0.030566 0 255 255
-0.547391 0.243714 0.031084 0 255 255
-0.537512 0.241342 0.030566 0 255 255
-0.545849 0.247149 0.031084 0 255 255
-0.554155 0.25301 0.031602 0 255 255
-0.544285 0.250573 0.031084 0 255 255
-0.561612 0.260692 0.03212 0 255 255
-0.5427 0.253989 0.031084 0 255 255
-0.5419 0.255692 0.031084 0 255 255
-0.550112 0.261683 0.031602 0 255 255
-0.549287 0.26341 0.031602 0 255 255
-0.548457 0.265134 0.031602 0 255 255
-0.547668 0.266761 0.031602 0 255 255
-0.546827 0.26848 0.031602 0 255 255
-0.546028 0.270101 0.031602 0 255 255
-0.562953 0.280924 0.032638 0 255 255
-0.553195 0.278107 0.03212 0 255 255
-0.54341 0.27533 0.031602 0 255 255
-0.551437 0.281577 0.03212 0 255 255
-0.54167 0.278739 0.031602 0 255 255
-0.540791 0.280439 0.031602 0 255 255
-0.539908 0.282137 0.031602 0 255 255
-0.539018 0.283832 0.031602 0 255 255
-0.538124 0.285523 0.031602 0 255 255
-0.537224 0.287213 0.031602 0 255 255
-0.545112 0.293635 0.03212 0 255 255
-0.544187 0.295346 0.03212 0 255 255
-0.543256 0.297054 0.03212 0 255 255
-0.54232 0.298759 0.03212 0 255 255
-0.532647 0.295616 0.031602 0 255 255
-0.522999 0.292414 0.031084 0 255 255
-0.530779 0.298957 0.031602 0 255 255
-0.529837 0.300623 0.031602 0 255 255
-0.52889 0.302285 0.031602 0 255 255
-0.536593 0.308928 0.03212 0 255 255
-0.518341 0.300593 0.031084 0 255 255
-0.517394 0.30222 0.031084 0 255 255
-0.52505 0.308908 0.031602 0 255 255
-0.524077 0.310556 0.031602 0 255 255
-0.523099 0.312201 0.031602 0 255 255
-0.513556 0.308698 0.031084 0 255 255
-0.52967 0.320653 0.03212 0 255 255
-0.520133 0.317117 0.031602 0 255 255
-0.519134 0.318749 0.031602 0 255 255
-0.51813 0.320379 0.031602 0 255 255
-0.517121 0.322005 0.031602 0 255 255
-0.507702 0.318234 0.031084 0 255 255
-0.515144 0.325158 0.031602 0 255 255
-0.505692 0.321418 0.031084 0 255 255
-0.50468 0.323004 0.031084 0 255 255
-0.495268 0.319179 0.030566 0 255 255
-0.50264 0.326169 0.031084 0 255 255
-0.493253 0.322284 0.030566 0 255 255
-0.483895 0.318344 0.030048 0 255 255
-0.482893 0.319862 0.030048 0 255 255
-0.473577 0.315837 0.029529 0 255 255
-0.464292 0.311756 0.029011 0 255 255
-0.446763 0.302027 0.027975 0 255 255
-0.445812 0.303429 0.027975 0 255 255
-0.436619 0.299183 0.027457 0 255 255
-0.435676 0.300553 0.027457 0 255 255
-0.43473 0.30192 0.027457 0 255 255
-0.450148 0.314729 0.028493 0 255 255
-0.440991 0.310394 0.027975 0 255 255
-0.448162 0.317551 0.028493 0 255 255
-0.447162 0.318958 0.028493 0 255 255
-0.454327 0.326106 0.029011 0 255 255
-0.4533 0.327532 0.029011 0 255 255
-0.452269 0.328955 0.029011 0 255 255
-0.443176 0.324474 0.028493 0 255 255
-0.450193 0.33179 0.029011 0 255 255
-0.424094 0.316686 0.027457 0 255 255
-0.43108 0.324017 0.027975 0 255 255
-0.438024 0.331395 0.028493 0 255 255
-0.429036 0.326719 0.027975 0 255 255
-0.435933 0.334141 0.028493 0 255 255
-0.434882 0.335509 0.028493 0 255 255
-0.441713 0.342998 0.029011 0 255 255
-0.440633 0.344384 0.029011 0 255 255
-0.4317 0.339593 0.028493 0 255 255
-0.44629 0.353345 0.029529 0 255 255
-0.452988 0.360969 0.030048 0 255 255
-0.436271 0.349894 0.029011 0 255 255
-0.458482 0.370081 0.030566 0 255 255
-0.449566 0.365222 0.030048 0 255 255
-0.479342 0.391918 0.03212 0 255 255
-0.457203 0.432204 0.032638 0 255 255
-0.490216 0.484263 0.035746 0 255 255
-0.502857 0.499882 0.036782 0 255 255
-0.480103 0.480271 0.035228 0 255 255
-0.499706 0.503032 0.036782 0 255 255
-0.512155 0.518813 0.037818 0 255 255
-0.503529 0.51329 0.0373 0 255 255
-0.494943 0.507719 0.036782 0 255 255
-0.486397 0.502098 0.036264 0 255 255
-0.491743 0.510819 0.036782 0 255 255
-0.469426 0.490712 0.035228 0 255 255
-0.467882 0.492184 0.035228 0 255 255
-0.459476 0.486392 0.03471 0 255 255
-0.457946 0.487833 0.03471 0 255 255
-0.456411 0.489269 0.03471 0 255 255
-0.454957 0.490621 0.03471 0 255 255
-0.446646 0.484704 0.034192 0 255 255
-0.445121 0.486105 0.034192 0 255 255
-0.443592 0.487501 0.034192 0 255 255
-0.442058 0.488892 0.034192 0 255 255
-0.453869 0.505135 0.035228 0 255 255
-0.45228 0.506559 0.035228 0 255 255
-0.457314 0.515448 0.035746 0 255 255
-0.449088 0.509391 0.035228 0 255 255
-0.447486 0.510799 0.035228 0 255 255
-0.432765 0.497137 0.034192 0 255 255
-0.424667 0.490942 0.033674 0 255 255
-0.403594 0.469553 0.03212 0 255 255
-0.389146 0.455631 0.031084 0 255 255
-0.38125 0.449237 0.030566 0 255 255
-0.366961 0.435164 0.029529 0 255 255
-0.352838 0.420944 0.028493 0 255 255
-0.351514 0.42205 0.028493 0 255 255
-0.350186 0.423152 0.028493 0 255 255
-0.342512 0.416536 0.027975 0 255 255
-0.334884 0.409877 0.027457 0 255 255
-0.3273 0.403174 0.026939 0 255 255
-0.326032 0.4042 0.026939 0 255 255
-0.32476 0.405222 0.026939 0 255 255
-0.317265 0.398428 0.026421 0 255 255
-0.316012 0.399423 0.026421 0 255 255
-0.29624 0.37686 0.024867 0 255 255
-0.307349 0.39353 0.025903 0 255 255
-0.293867 0.378714 0.024867 0 255 255
-0.298773 0.387544 0.025385 0 255 255
-0.285408 0.372625 0.024349 0 255 255
-0.284236 0.373519 0.024349 0 255 255
-0.283062 0.37441 0.024349 0 255 255
-0.281884 0.375298 0.024349 0 255 255
-0.280769 0.376133 0.024349 0 255 255
-0.285535 0.385034 0.024867 0 255 255
-0.2784 0.377889 0.024349 0 255 255
-0.277212 0.378762 0.024349 0 255 255
-0.281893 0.387708 0.024867 0 255 255
-0.274827 0.380496 0.024349 0 255 255
-0.267808 0.373244 0.023831 0 255 255
-0.27243 0.382216 0.024349 0 255 255
-0.271228 0.38307 0.024349 0 255 255
-0.275769 0.392088 0.024867 0 255 255
-0.280255 0.401139 0.025385 0 255 255
-0.267606 0.385609 0.024349 0 255 255
-0.266393 0.386448 0.024349 0 255 255
-0.27082 0.395523 0.024867 0 255 255
-0.269645 0.396324 0.024867 0 255 255
-0.27399 0.405444 0.025385 0 255 255
-0.26715 0.398011 0.024867 0 255 255
-0.271438 0.407157 0.025385 0 255 255
-0.264644 0.399682 0.024867 0 255 255
-0.268874 0.408855 0.025385 0 255 255
-0.267588 0.409698 0.025385 0 255 255
-0.271735 0.418914 0.025903 0 255 255
-0.270417 0.419766 0.025903 0 255 255
-0.269097 0.420614 0.025903 0 255 255
-0.27313 0.429886 0.026421 0 255 255
-0.271778 0.430742 0.026421 0 255 255
-0.270423 0.431594 0.026421 0 255 255
-0.274342 0.44092 0.026939 0 255 255
-0.267706 0.433284 0.026421 0 255 255
-0.261121 0.425611 0.025903 0 255 255
-0.244196 0.400843 0.024349 0 255 255
-0.237767 0.393064 0.023831 0 255 255
-0.112171 0.256139 0.014506 0 255 255
-0.115343 0.265651 0.015024 0 255 255
-0.114508 0.266012 0.015024 0 255 255
-0.117591 0.275555 0.015542 0 255 255
-0.116725 0.275923 0.015542 0 255 255
-0.108134 0.25787 0.014506 0 255 255
-0.10349 0.248986 0.013988 0 255 255
-0.106511 0.258544 0.014506 0 255 255
-0.101924 0.249632 0.013988 0 255 255
-0.10493 0.25919 0.014506 0 255 255
-0.096678 0.240981 0.01347 0 255 255
-0.09961 0.250564 0.013988 0 255 255
-0.098823 0.250875 0.013988 0 255 255
-0.090772 0.232578 0.012952 0 255 255
-0.086439 0.223548 0.012433 0 255 255
-0.096454 0.251796 0.013988 0 255 255
-0.085033 0.224087 0.012433 0 255 255
-0.084329 0.224353 0.012433 0 255 255
-0.117714 0.286732 0.005327 0 255 255
-0.113045 0.277839 0.005156 0 255 255
-0.100954 0.250373 0.00464 0 255 255
-0.100211 0.250672 0.00464 0 255 255
-0.103105 0.260281 0.004812 0 255 255
-0.109593 0.279218 0.005156 0 255 255
-0.108715 0.279561 0.005156 0 255 255
-0.097053 0.251911 0.00464 0 255 255
-0.099826 0.261556 0.004812 0 255 255
-0.095468 0.252516 0.00464 0 255 255
-0.091168 0.243451 0.004468 0 255 255
-0.083488 0.224973 0.004124 0 255 255
-0.096577 0.262773 0.004812 0 255 255
-0.095752 0.263075 0.004812 0 255 255
-0.088144 0.244562 0.004468 0 255 255
-0.084015 0.235421 0.004296 0 255 255
-14.2115 49.3988 0.883502 0 255 255
-8.8948 49.7842 0.869238 0 255 255
-0.373649 2.16771 0.037808 0 255 255
-0.363502 2.14915 0.037464 0 255 255
-0.358385 2.16015 0.037636 0 255 255
-0.349991 2.1514 0.037464 0 255 255
-0.343231 2.15248 0.037464 0 255 255
-0.338011 2.16343 0.037636 0 255 255
-0.3297 2.1546 0.037464 0 255 255
-0.32293 2.15562 0.037464 0 255 255
-0.319056 2.17641 0.037808 0 255 255
-0.312597 2.17735 0.037808 0 255 255
-0.301586 2.14862 0.037292 0 255 255
-0.297552 2.16937 0.037636 0 255 255
-0.289408 2.16038 0.037464 0 255 255
-0.283915 2.17119 0.037636 0 255 255
-0.275828 2.16215 0.037464 0 255 255
-0.269034 2.16301 0.037464 0 255 255
-0.262237 2.16385 0.037464 0 255 255
-0.25661 2.17459 0.037636 0 255 255
-0.246355 2.14558 0.03712 0 255 255
-0.241099 2.15624 0.037292 0 255 255
-0.232165 2.13711 0.036949 0 255 255
-0.227546 2.15771 0.037292 0 255 255
-0.217715 2.12858 0.036777 0 255 255
-0.211026 2.12925 0.036777 0 255 255
-0.205292 2.13986 0.036949 0 255 255
-0.194873 2.10067 0.036261 0 255 255
-0.189165 2.11123 0.036433 0 255 255
-0.184254 2.13174 0.036777 0 255 255
-0.180044 2.1622 0.037292 0 255 255
-0.174049 2.17272 0.037464 0 255 255
-0.165689 2.15332 0.03712 0 255 255
-0.159658 2.1638 0.037292 0 255 255
-0.153565 2.17426 0.037464 0 255 255
-0.147407 2.18471 0.037636 0 255 255
-0.139258 2.16521 0.037292 0 255 255
-0.133446 2.17559 0.037464 0 255 255
-0.126029 2.16602 0.037292 0 255 255
-0.119774 2.17638 0.037464 0 255 255
-0.112936 2.17675 0.037464 0 255 255
-0.830766 17.0472 0.293355 0 255 255
-0.779941 17.1097 0.294386 0 255 255
-0.719822 16.9622 0.291808 0 255 255
-0.680665 17.3241 0.297995 0 255 255
-0.619016 17.1263 0.294558 0 255 255
-0.574108 17.398 0.299198 0 255 255
-0.515871 17.2797 0.297136 0 255 255
-0.455438 17.0514 0.293183 0 255 255
-0.407288 17.2826 0.297136 0 255 255
-0.347482 17.0139 0.292496 0 255 255
-0.294028 16.8449 0.289574 0 255 255
-0.244687 17.0957 0.293871 0 255 255
-0.190638 17.0664 0.293355 0 255 255
-0.136463 16.9969 0.292152 0 255 255
-0.08253 16.8873 0.290262 0 255 255
-0.029577 16.9475 0.291293 0 255 255
0.024374 17.4574 0.300057 0 255 255
0.079268 17.4672 0.300229 0 255 255
0.135675 17.6669 0.303666 0 255 255
0.19312 17.8463 0.30676 0 255 255
0.247655 17.7357 0.304869 0 255 255
0.303197 17.7248 0.304697 0 255 255
0.359002 17.8838 0.307447 0 255 255
0.41402 17.8326 0.306588 0 255 255
0.473462 17.9611 0.308822 0 255 255
0.53284 18.0595 0.31054 0 255 255
0.588591 18.0277 0.310025 0 255 255
0.787976 17.4196 0.299714 0 255 255
3.91803 51.1526 0.881783 0 255 255
8.04178 51.5893 0.897422 0 255 255
2.7521 14.621 0.255719 0 255 255
10.5782 51.7624 0.908077 0 255 255
10.7489 51.768 0.908765 0 255 255
10.9259 51.8025 0.909967 0 255 255
11.0949 51.7972 0.910483 0 255 255
5.38011 24.7584 0.435478 0 255 255
5.44924 24.7024 0.434791 0 255 255
5.52683 24.6851 0.434791 0 255 255
11.7868 51.88 0.914436 0 255 255
11.952 51.8525 0.914608 0 255 255
0.519013 2.21979 0.039183 0 255 255
0.523677 2.20843 0.039011 0 255 255
0.516588 2.14844 0.03798 0 255 255
0.837262 2.23817 0.041073 0 255 255
0.823095 2.17941 0.040042 0 255 255
0.825997 2.16761 0.03987 0 255 255
0.836392 2.17434 0.040042 0 255 255
0.846838 2.18102 0.040214 0 255 255
1.63692 2.25883 0.047947 0 255 255
1.63222 2.23752 0.047604 0 255 255
32.824 44.4077 0.94915 0 255 255
33.0349 44.4006 0.951213 0 255 255
33.1922 44.3206 0.951728 0 255 255
33.3116 44.2059 0.951384 0 255 255
33.3898 44.0214 0.949666 0 255 255
33.5401 43.9322 0.95001 0 255 255
33.7648 43.9238 0.952244 0 255 255
33.9271 43.8491 0.952931 0 255 255
34.2306 43.9553 0.957571 0 255 255
34.3609 43.8535 0.957571 0 255 255
34.6842 43.9809 0.962727 0 255 255
34.8284 43.8796 0.962899 0 255 255
49.8779 55.6875 1.28495 0 255 255
42.6159 46.9823 1.09024 0 255 255
42.4734 46.5306 1.08285 0 255 255
42.4232 46.1834 1.07787 0 255 255
42.4391 45.9104 1.0746 0 255 255
42.6172 45.8134 1.07546 0 255 255
2.1459 2.27797 0.05379 0 255 255
2.12553 2.24219 0.053103 0 255 255
7.32137 7.34185 0.178213 0 255 255
7.96792 7.79731 0.191617 0 255 255
7.97087 7.75133 0.191102 0 255 255
7.92328 7.65677 0.189383 0 255 255
7.85355 7.54181 0.187149 0 255 255
7.9423 7.57922 0.188696 0 255 255
7.90078 7.49231 0.187149 0 255 255
7.30496 6.79769 0.17151 0 255 255
7.28223 6.73398 0.170479 0 255 255
7.40561 6.76225 0.17237 0 255 255
7.54719 6.67954 0.173229 0 255 255
7.51558 6.60958 0.172026 0 255 255
2.46944 2.15803 0.056368 0 255 255
2.43091 2.11092 0.055337 0 255 255
2.46024 2.12287 0.055853 0 255 255
2.4669 2.11513 0.055853 0 255 255
2.47353 2.10737 0.055853 0 255 255
2.47251 2.09313 0.055681 0 255 255
2.49437 2.09823 0.056024 0 255 255
2.49328 2.08397 0.055853 0 255 255
2.49982 2.07612 0.055853 0 255 255
2.49862 2.0619 0.055681 0 255 255
2.48188 2.03502 0.055165 0 255 255
2.46501 2.00827 0.05465 0 255 255
2.47131 2.00051 0.05465 0 255 255
2.47758 1.99274 0.05465 0 255 255
2.47602 1.9787 0.054478 0 255 255
2.49005 1.97713 0.05465 0 255 255
2.49625 1.9693 0.05465 0 255 255
2.49456 1.95528 0.054478 0 255 255
2.4928 1.94129 0.054306 0 255 255
2.48307 1.92121 0.053962 0 255 255
2.48083 1.90774 0.05379 0 255 255
2.47887 1.89387 0.053618 0 255 255
2.48481 1.88607 0.053618 0 255 255
2.49072 1.87826 0.053618 0 255 255
2.49661 1.87042 0.053618 0 255 255
2.49445 1.8566 0.053447 0 255 255
2.50831 1.8547 0.053618 0 255 255
2.50607 1.84089 0.053447 0 255 255
2.51184 1.83301 0.053447 0 255 255
2.50949 1.81924 0.053275 0 255 255
2.46651 1.77629 0.052244 0 255 255
2.08175 1.48929 0.043995 0 255 255
2.07827 1.47695 0.043823 0 255 255
2.0829 1.47041 0.043823 0 255 255
2.0957 1.4696 0.043995 0 255 255
2.1003 1.46301 0.043995 0 255 255
2.09666 1.45072 0.043823 0 255 255
2.10945 1.44979 0.043995 0 255 255
2.114 1.44315 0.043995 0 255 255
2.11852 1.4365 0.043995 0 255 255
2.12277 1.43021 0.043995 0 255 255
2.11894 1.41797 0.043823 0 255 255
2.14004 1.42238 0.044167 0 255 255
2.13616 1.41014 0.043995 0 255 255
2.14894 1.40891 0.044167 0 255 255
2.15335 1.40215 0.044167 0 255 255
2.14935 1.38995 0.043995 0 255 255
2.16212 1.38859 0.044167 0 255 255
2.16647 1.38179 0.044167 0 255 255
2.1708 1.37498 0.044167 0 255 255
2.17511 1.36815 0.044167 0 255 255
2.1794 1.36131 0.044167 0 255 255
2.18367 1.35446 0.044167 0 255 255
2.1794 1.34235 0.043995 0 255 255
2.1836 1.33549 0.043995 0 255 255
2.18779 1.32863 0.043995 0 255 255
2.20051 1.32691 0.044167 0 255 255
2.20467 1.31999 0.044167 0 255 255
2.20881 1.31306 0.044167 0 255 255
2.21292 1.30611 0.044167 0 255 255
2.21679 1.29954 0.044167 0 255 255
2.22086 1.29257 0.044167 0 255 255
2.22491 1.28559 0.044167 0 255 255
2.23783 1.28317 0.044338 0 255 255
2.24185 1.27614 0.044338 0 255 255
2.24585 1.26909 0.044338 0 255 255
2.24089 1.25753 0.044167 0 255 255
2.24483 1.25048 0.044167 0 255 255
2.25749 1.24826 0.044338 0 255 255
2.25286 1.23596 0.044167 0 255 255
2.26551 1.23366 0.044338 0 255 255
2.26937 1.22653 0.044338 0 255 255
2.273 1.21979 0.044338 0 255 255
2.268 1.20795 0.044167 0 255 255
2.28041 1.20589 0.044338 0 255 255
2.27554 1.19367 0.044167 0 255 255
2.28815 1.19114 0.044338 0 255 255
2.29188 1.18394 0.044338 0 255 255
2.29559 1.17674 0.044338 0 255 255
2.29927 1.16952 0.044338 0 255 255
2.30294 1.16229 0.044338 0 255 255
2.31552 1.15953 0.04451 0 255 255
2.31915 1.15224 0.04451 0 255 255
2.32276 1.14495 0.04451 0 255 255
2.32634 1.13765 0.04451 0 255 255
2.3389 1.1347 0.044682 0 255 255
2.34245 1.12735 0.044682 0 255 255
2.34598 1.11998 0.044682 0 255 255
2.34949 1.11261 0.044682 0 255 255
2.34392 1.10097 0.04451 0 255 255
2.35644 1.09782 0.044682 0 255 255
2.35987 1.09041 0.044682 0 255 255
2.36329 1.083 0.044682 0 255 255
2.36668 1.07557 0.044682 0 255 255
2.37916 1.07223 0.044854 0 255 255
2.37339 1.06067 0.044682 0 255 255
2.37671 1.05321 0.044682 0 255 255
2.38916 1.04976 0.044854 0 255 255
2.39245 1.04225 0.044854 0 255 255
2.39571 1.03473 0.044854 0 255 255
2.40814 1.03113 0.045026 0 255 255
2.40216 1.01966 0.044854 0 255 255
2.41457 1.01598 0.045026 0 255 255
2.41775 1.00839 0.045026 0 255 255
2.42091 1.00079 0.045026 0 255 255
2.42404 0.993182 0.045026 0 255 255
2.43624 0.989749 0.045198 0 255 255
2.43006 0.978356 0.045026 0 255 255
2.44241 0.974422 0.045198 0 255 255
2.44563 0.966317 0.045198 0 255 255
2.44865 0.958629 0.045198 0 255 255
2.46097 0.954548 0.045369 0 255 255
2.46379 0.947242 0.045369 0 255 255
2.45741 0.935938 0.045198 0 255 255
2.4697 0.931743 0.045369 0 255 255
2.47261 0.923979 0.045369 0 255 255
2.48488 0.919678 0.045541 0 255 255
2.48776 0.911867 0.045541 0 255 255
2.49061 0.904046 0.045541 0 255 255
2.49343 0.896217 0.045541 0 255 255
2.49624 0.888379 0.045541 0 255 255
2.49902 0.880534 0.045541 0 255 255
2.50177 0.872678 0.045541 0 255 255
2.5141 0.867638 0.045713 0 255 255
2.51667 0.860175 0.045713 0 255 255
2.52883 0.855469 0.045885 0 255 255
2.5315 0.847521 0.045885 0 255 255
2.53415 0.839563 0.045885 0 255 255
2.53678 0.831597 0.045885 0 255 255
2.54889 0.826709 0.046057 0 255 255
2.55147 0.818698 0.046057 0 255 255
2.56356 0.813702 0.046229 0 255 255
2.56611 0.805645 0.046229 0 255 255
2.57817 0.800543 0.046401 0 255 255
2.58067 0.79244 0.046401 0 255 255
2.58315 0.78433 0.046401 0 255 255
2.5856 0.77621 0.046401 0 255 255
2.59762 0.770928 0.046572 0 255 255
2.59043 0.759948 0.046401 0 255 255
2.60241 0.754592 0.046572 0 255 255
2.60476 0.746413 0.046572 0 255 255
2.6071 0.738225 0.046572 0 255 255
2.6094 0.730032 0.046572 0 255 255
2.61168 0.72183 0.046572 0 255 255
8.05123 2.17088 0.143326 0 255 255
8.02903 2.13786 0.142811 0 255 255
8.02603 2.11008 0.142639 0 255 255
8.00359 2.07732 0.142123 0 255 255
8.01976 2.05465 0.142295 0 255 255
8.02617 2.02944 0.142295 0 255 255
8.03251 2.00422 0.142295 0 255 255
8.04848 1.98136 0.142467 0 255 255
8.05466 1.95607 0.142467 0 255 255
8.07049 1.93308 0.142639 0 255 255
8.08626 1.91002 0.142811 0 255 255
8.10195 1.88687 0.142983 0 255 255
8.11759 1.86365 0.143154 0 255 255
8.14291 1.84255 0.143498 0 255 255
8.16817 1.82131 0.143842 0 255 255
8.20315 1.80208 0.144357 0 255 255
8.24786 1.78476 0.145045 0 255 255
8.9184 1.90055 0.156731 0 255 255
8.94389 1.87663 0.157075 0 255 255
8.93995 1.84649 0.156903 0 255 255
8.94571 1.8184 0.156903 0 255 255
8.94157 1.78832 0.156731 0 255 255
8.94715 1.76023 0.156731 0 255 255
8.95263 1.73211 0.156731 0 255 255
8.95803 1.70397 0.156731 0 255 255
8.96334 1.67582 0.156731 0 255 255
8.96856 1.64766 0.156731 0 255 255
8.97369 1.61947 0.156731 0 255 255
8.97873 1.59127 0.156731 0 255 255
8.98369 1.56306 0.156731 0 255 255
8.9787 1.53315 0.156559 0 255 255
8.98347 1.50493 0.156559 0 255 255
8.98816 1.4767 0.156559 0 255 255
8.99275 1.44846 0.156559 0 255 255
8.99726 1.4202 0.156559 0 255 255
9.00167 1.39192 0.156559 0 255 255
8.99612 1.36214 0.156387 0 255 255
9.01024 1.33534 0.156559 0 255 255
9.01439 1.30703 0.156559 0 255 255
9.00855 1.27729 0.156387 0 255 255
9.01252 1.24899 0.156387 0 255 255
9.02631 1.22201 0.156559 0 255 255
9.02019 1.19234 0.156387 0 255 255
9.02389 1.16399 0.156387 0 255 255
9.02751 1.13564 0.156387 0 255 255
9.03103 1.10727 0.156387 0 255 255
9.03446 1.07889 0.156387 0 255 255
9.03781 1.05051 0.156387 0 255 255
9.04106 1.02211 0.156387 0 255 255
9.04423 0.993698 0.156387 0 255 255
9.05742 0.964762 0.156559 0 255 255
9.05029 0.936852 0.156387 0 255 255
9.0633 0.907833 0.156559 0 255 255
9.05616 0.878392 0.156387 0 255 255
9.05887 0.849934 0.156387 0 255 255
9.06135 0.823054 0.156387 0 255 255
9.06389 0.79458 0.156387 0 255 255
9.06635 0.766103 0.156387 0 255 255
9.06884 0.736036 0.156387 0 255 255
9.0711 0.707539 0.156387 0 255 255
9.06331 0.678289 0.156215 0 255 255
9.06528 0.6514 0.156215 0 255 255
9.07726 0.6236 0.156387 0 255 255
9.07917 0.595082 0.156387 0 255 255
9.0811 0.564969 0.156387 0 255 255
9.08283 0.536434 0.156387 0 255 255
9.08447 0.507903 0.156387 0 255 255
9.096 0.479885 0.156559 0 255 255
9.08748 0.450813 0.156387 0 255 255
9.09884 0.422723 0.156559 0 255 255
9.10012 0.394138 0.156559 0 255 255
9.09133 0.365148 0.156387 0 255 255
9.10242 0.336952 0.156559 0 255 255
9.10343 0.308356 0.156559 0 255 255
9.11435 0.28006 0.156731 0 255 255
9.11519 0.251427 0.156731 0 255 255
9.10594 0.222547 0.156559 0 255 255
9.11659 0.194149 0.156731 0 255 255
9.10715 0.165327 0.156559 0 255 255
9.10763 0.136713 0.156559 0 255 255
9.11801 0.10822 0.156731 0 255 255
9.11831 0.079577 0.156731 0 255 255
9.11851 0.050928 0.156731 0 255 255
9.11863 0.022278 0.156731 0 255 255
9.12865 -0.006373 0.156903 0 255 255
9.12858 -0.035051 0.156903 0 255 255
9.12843 -0.063729 0.156903 0 255 255
9.13818 -0.092508 0.157075 0 255 255
9.13782 -0.122811 0.157075 0 255 255
9.14739 -0.151683 0.157247 0 255 255
9.14687 -0.18042 0.157247 0 255 255
9.14629 -0.207558 0.157247 0 255 255
9.1456 -0.236291 0.157247 0 255 255
9.1648 -0.265601 0.15759 0 255 255
9.16392 -0.294392 0.15759 0 255 255
9.16295 -0.32318 0.15759 0 255 255
9.16189 -0.351964 0.15759 0 255 255
9.17073 -0.381161 0.157762 0 255 255
9.16948 -0.409969 0.157762 0 255 255
9.16815 -0.438774 0.157762 0 255 255
9.17671 -0.468084 0.157934 0 255 255
9.1752 -0.496911 0.157934 0 255 255
9.18357 -0.526305 0.158106 0 255 255
9.18187 -0.555154 0.158106 0 255 255
9.19006 -0.584631 0.158278 0 255 255
9.18818 -0.6135 0.158278 0 255 255
9.18621 -0.642362 0.158278 0 255 255
9.19412 -0.671947 0.15845 0 255 255
9.19196 -0.700828 0.15845 0 255 255
9.19968 -0.730493 0.158621 0 255 255
9.19734 -0.759391 0.158621 0 255 255
9.20487 -0.789136 0.158793 0 255 255
9.21216 -0.820543 0.158965 0 255 255
9.20954 -0.84948 0.158965 0 255 255
9.21678 -0.879358 0.159137 0 255 255
9.21397 -0.908309 0.159137 0 255 255
9.22102 -0.938263 0.159309 0 255 255
9.23808 -0.967701 0.159652 0 255 255
5.40769 -0.584598 0.093489 0 255 255
5.29652 -0.58942 0.091598 0 255 255
9.23474 -1.0881 0.159824 0 255 255
9.16199 -1.1071 0.158621 0 255 255
9.23785 -1.14572 0.159996 0 255 255
9.25404 -1.17726 0.16034 0 255 255
9.25029 -1.20633 0.16034 0 255 255
9.25637 -1.23671 0.160512 0 255 255
9.25244 -1.26578 0.160512 0 255 255
9.25832 -1.29623 0.160684 0 255 255
9.2641 -1.32673 0.160855 0 255 255
9.25988 -1.35582 0.160855 0 255 255
9.26547 -1.38639 0.161027 0 255 255
9.26107 -1.41549 0.161027 0 255 255
9.26645 -1.44612 0.161199 0 255 255
9.27174 -1.47679 0.161371 0 255 255
9.27692 -1.50752 0.161543 0 255 255
9.27214 -1.53666 0.161543 0 255 255
5.4687 -0.94166 0.095379 0 255 255
5.44602 -0.95538 0.095035 0 255 255
5.44282 -0.973435 0.095035 0 255 255
5.44957 -0.99232 0.095207 0 255 255
5.45626 -1.01126 0.095379 0 255 255
5.41375 -1.02098 0.094692 0 255 255
5.45962 -1.0474 0.095551 0 255 255
9.36207 -1.82659 0.163949 0 255 255
9.2484 -1.83459 0.162058 0 255 255
9.321 -1.87944 0.163433 0 255 255
9.32485 -1.91072 0.163605 0 255 255
9.32859 -1.94205 0.163777 0 255 255
9.33222 -1.97341 0.163949 0 255 255
9.32598 -2.00272 0.163949 0 255 255
9.32941 -2.03414 0.164121 0 255 255
9.34249 -2.06776 0.164464 0 255 255
9.34571 -2.09929 0.164636 0 255 255
9.34882 -2.13086 0.164808 0 255 255
9.35182 -2.16248 0.16498 0 255 255
9.35471 -2.19413 0.165152 0 255 255
9.3575 -2.22582 0.165324 0 255 255
9.36018 -2.25755 0.165496 0 255 255
9.36275 -2.28932 0.165667 0 255 255
9.36522 -2.32113 0.165839 0 255 255
9.35747 -2.35217 0.165839 0 255 255
9.36942 -2.38649 0.166183 0 255 255
9.37155 -2.41841 0.166355 0 255 255
9.37401 -2.44874 0.166527 0 255 255
9.37594 -2.48073 0.166698 0 255 255
9.38741 -2.51535 0.167042 0 255 255
9.37946 -2.54483 0.167042 0 255 255
9.39071 -2.57958 0.167386 0 255 255
9.39173 -2.61339 0.167558 0 255 255
9.3931 -2.64559 0.16773 0 255 255
9.40397 -2.68057 0.168073 0 255 255
9.40511 -2.71287 0.168245 0 255 255
9.40614 -2.7452 0.168417 0 255 255
9.40706 -2.77757 0.168589 0 255 255
9.40787 -2.80997 0.168761 0 255 255
9.41814 -2.8453 0.169104 0 255 255
9.41871 -2.87779 0.169276 0 255 255
9.41918 -2.91032 0.169448 0 255 255
9.41953 -2.94288 0.16962 0 255 255
9.42931 -2.97848 0.169964 0 255 255
9.4289 -3.01277 0.170136 0 255 255
9.43842 -3.04853 0.170479 0 255 255
9.4383 -3.08127 0.170651 0 255 255
9.43861 -3.11239 0.170823 0 255 255
9.44721 -3.15 0.171167 0 255 255
9.45622 -3.18604 0.17151 0 255 255
9.45563 -3.21896 0.171682 0 255 255
9.45492 -3.2519 0.171854 0 255 255
9.46355 -3.28815 0.172198 0 255 255
9.46261 -3.32118 0.17237 0 255 255
9.47098 -3.35757 0.172713 0 255 255
9.46979 -3.39068 0.172885 0 255 255
9.4773 -3.42886 0.173229 0 255 255
9.47648 -3.4604 0.173401 0 255 255
9.48432 -3.49707 0.173745 0 255 255
9.48266 -3.53034 0.173916 0 255 255
9.49024 -3.56715 0.17426 0 255 255
9.48834 -3.60049 0.174432 0 255 255
9.49502 -3.63909 0.174776 0 255 255
9.50219 -3.67612 0.175119 0 255 255
9.49991 -3.70959 0.175291 0 255 255
9.50681 -3.74675 0.175635 0 255 255
9.50428 -3.78029 0.175807 0 255 255
9.51092 -3.81758 0.17615 0 255 255
9.50814 -3.8512 0.176322 0 255 255
9.51451 -3.88861 0.176666 0 255 255
9.52073 -3.92611 0.17701 0 255 255
9.52681 -3.96368 0.177353 0 255 255
9.52353 -3.99746 0.177525 0 255 255
9.52934 -4.03515 0.177869 0 255 255
9.54349 -4.07852 0.178385 0 255 255
9.53981 -4.11244 0.178556 0 255 255
9.55435 -4.15435 0.179072 0 255 255
9.55957 -4.19238 0.179416 0 255 255
9.5555 -4.22643 0.179588 0 255 255
9.56043 -4.26458 0.179931 0 255 255
9.55611 -4.2987 0.180103 0 255 255
9.57898 -4.34522 0.180791 0 255 255
9.56528 -4.37529 0.180791 0 255 255
9.56964 -4.41369 0.181134 0 255 255
9.57386 -4.45217 0.181478 0 255 255
9.57794 -4.49071 0.181822 0 255 255
9.55474 -4.51651 0.18165 0 255 255
9.59466 -4.57231 0.182681 0 255 255
9.59827 -4.61109 0.183025 0 255 255
9.59274 -4.64558 0.183196 0 255 255
9.59607 -4.68446 0.18354 0 255 255
9.60822 -4.72783 0.184056 0 255 255
9.60144 -4.76411 0.184228 0 255 255
9.58643 -4.79425 0.184228 0 255 255
9.58918 -4.83334 0.184571 0 255 255
9.59177 -4.8725 0.184915 0 255 255
9.62092 -4.92539 0.185774 0 255 255
9.62317 -4.96476 0.186118 0 255 255
9.62527 -5.00419 0.186462 0 255 255
9.63607 -5.04833 0.186977 0 255 255
9.629 -5.08324 0.187149 0 255 255
9.61299 -5.11347 0.187149 0 255 255
9.63212 -5.16254 0.187837 0 255 255
9.61586 -5.19277 0.187837 0 255 255
9.65128 -5.25331 0.188868 0 255 255
9.65318 -5.29153 0.189211 0 255 255
9.64433 -5.32835 0.189383 0 255 255
9.41787 -5.24192 0.185259 0 255 255
9.44496 -5.29593 0.186118 0 255 255
9.66333 -5.45835 0.190758 0 255 255
9.66352 -5.49857 0.191102 0 255 255
9.66355 -5.53885 0.191445 0 255 255
9.66342 -5.57918 0.191789 0 255 255
9.66313 -5.61956 0.192133 0 255 255
9.67131 -5.66505 0.192648 0 255 255
9.67069 -5.70557 0.192992 0 255 255
9.68709 -5.75635 0.19368 0 255 255
9.68612 -5.79703 0.194023 0 255 255
9.69355 -5.84291 0.194539 0 255 255
9.68369 -5.87852 0.194711 0 255 255
9.68974 -5.92625 0.195226 0 255 255
9.69661 -5.9724 0.195742 0 255 255
9.71179 -6.02391 0.196429 0 255 255
9.70977 -6.06498 0.196773 0 255 255
9.71606 -6.11143 0.197289 0 255 255
9.71371 -6.15262 0.197632 0 255 255
9.71962 -6.19924 0.198148 0 255 255
9.73375 -6.25136 0.198835 0 255 255
9.72976 -6.29446 0.199179 0 255 255
9.73617 -6.33967 0.199694 0 255 255
9.73293 -6.38119 0.200038 0 255 255
9.73787 -6.42826 0.200554 0 255 255
9.75094 -6.48096 0.201241 0 255 255
9.75546 -6.52824 0.201757 0 255 255
9.75034 -6.57173 0.2021 0 255 255
9.75446 -6.61918 0.202616 0 255 255
9.76664 -6.67235 0.203303 0 255 255
9.77035 -6.72 0.203819 0 255 255
9.76563 -6.76204 0.204163 0 255 255
9.77715 -6.81556 0.20485 0 255 255
9.78024 -6.86347 0.205366 0 255 255
9.78313 -6.91147 0.205881 0 255 255
9.79396 -6.96535 0.206569 0 255 255
9.79642 -7.01355 0.207084 0 255 255
9.79867 -7.06182 0.2076 0 255 255
9.80881 -7.11606 0.208287 0 255 255
9.81745 -7.17214 0.208975 0 255 255
9.81903 -7.22072 0.20949 0 255 255
9.82845 -7.27532 0.210178 0 255 255
9.8296 -7.32409 0.210693 0 255 255
9.83853 -7.37893 0.211381 0 255 255
9.84722 -7.4339 0.212068 0 255 255
9.8477 -7.48294 0.212584 0 255 255
9.84797 -7.53207 0.213099 0 255 255
9.85595 -7.58737 0.213787 0 255 255
7.21458 -5.73874 0.15845 0 255 255
7.1731 -5.74263 0.157934 0 255 255
7.13167 -5.74632 0.157418 0 255 255
7.06698 -5.73091 0.156387 0 255 255
6.95599 -5.67721 0.154325 0 255 255
6.95358 -5.71173 0.154669 0 255 255
6.9356 -5.73355 0.154669 0 255 255
6.87912 -5.72333 0.153809 0 255 255
6.83811 -5.72566 0.153294 0 255 255
6.73499 -5.67742 0.151403 0 255 255
6.75524 -5.73089 0.152263 0 255 255
6.71439 -5.73261 0.151747 0 255 255
6.68877 -5.74716 0.151575 0 255 255
6.6253 -5.7289 0.150544 0 255 255
6.59973 -5.74312 0.150372 0 255 255
6.55157 -5.73748 0.149685 0 255 255
6.511 -5.7382 0.149169 0 255 255
6.52287 -5.78517 0.149857 0 255 255
7.11225 -6.43092 0.164808 0 255 255
7.15857 -6.5138 0.166355 0 255 255
7.15282 -6.54976 0.166698 0 255 255
7.11015 -6.55187 0.166183 0 255 255
7.07487 -6.56058 0.165839 0 255 255
7.03229 -6.56231 0.165324 0 255 255
6.98978 -6.56384 0.164808 0 255 255
6.94732 -6.56516 0.164293 0 255 255
6.91217 -6.57317 0.163949 0 255 255
6.86867 -6.57532 0.163433 0 255 255
6.83357 -6.58299 0.16309 0 255 255
6.79132 -6.58355 0.162574 0 255 255
6.74914 -6.58391 0.162058 0 255 255
5.26572 -5.16919 0.126828 0 255 255
5.24732 -5.21627 0.127172 0 255 255
5.20263 -5.20444 0.126485 0 255 255
5.22149 -5.25623 0.127344 0 255 255
5.21197 -5.27973 0.127516 0 255 255
5.24849 -5.38396 0.129234 0 255 255
5.18887 -5.35824 0.128203 0 255 255
5.17201 -5.37452 0.128203 0 255 255
5.14819 -5.38351 0.128031 0 255 255
5.11748 -5.38516 0.127688 0 255 255
5.128 -5.43029 0.128375 0 255 255
5.11775 -5.45367 0.128547 0 255 255
5.11423 -5.48434 0.128891 0 255 255
5.09698 -5.50038 0.128891 0 255 255
5.03226 -5.46488 0.127688 0 255 255
4.82608 -5.27413 0.122876 0 255 255
4.76148 -5.23831 0.121673 0 255 255
4.69139 -5.19388 0.120298 0 255 255
4.63497 -5.16395 0.119267 0 255 255
4.5788 -5.13372 0.118236 0 255 255
4.52949 -5.11066 0.117376 0 255 255
4.49359 -5.10236 0.116861 0 255 255
4.44461 -5.07883 0.116002 0 255 255
4.39583 -5.05504 0.115142 0 255 255
4.35943 -5.04689 0.114627 0 255 255
4.31751 -5.03021 0.113939 0 255 255
4.27573 -5.01332 0.113252 0 255 255
4.24057 -5.00385 0.112736 0 255 255
4.20551 -4.9942 0.112221 0 255 255
4.1513 -4.96138 0.11119 0 255 255
3.87362 -4.65917 0.104144 0 255 255
3.85259 -4.66361 0.103972 0 255 255
3.83792 -4.67569 0.103972 0 255 255
3.82321 -4.68772 0.103972 0 255 255
3.80847 -4.69971 0.103972 0 255 255
3.78741 -4.70386 0.1038 0 255 255
3.78428 -4.73201 0.104144 0 255 255
3.77306 -4.77924 0.104659 0 255 255
3.69015 -4.70453 0.102769 0 255 255
3.72452 -4.77919 0.104144 0 255 255
3.70337 -4.78297 0.103972 0 255 255
3.68749 -4.79522 0.103972 0 255 255
3.67847 -4.81473 0.104144 0 255 255
3.66333 -4.82626 0.104144 0 255 255
3.65417 -4.84573 0.104315 0 255 255
3.63893 -4.85718 0.104315 0 255 255
3.62962 -4.87661 0.104487 0 255 255
3.62617 -4.90407 0.104831 0 255 255
3.60483 -4.90738 0.104659 0 255 255
3.60118 -4.93483 0.105003 0 255 255
3.59153 -4.95422 0.105175 0 255 255
3.58763 -4.9817 0.105518 0 255 255
3.57196 -4.99295 0.105518 0 255 255
3.56697 -5.02107 0.105862 0 255 255
3.55118 -5.03225 0.105862 0 255 255
3.54683 -5.05975 0.106206 0 255 255
3.53663 -5.07908 0.106378 0 255 255
3.53203 -5.10661 0.106721 0 255 255
3.52163 -5.12592 0.106893 0 255 255
3.51115 -5.14522 0.107065 0 255 255
3.50058 -5.1645 0.107237 0 255 255
3.4946 -5.19267 0.107581 0 255 255
4.28037 -6.44735 0.133015 0 255 255
4.28761 -6.5025 0.133874 0 255 255
4.28907 -6.5494 0.134562 0 255 255
4.28483 -6.58799 0.135077 0 255 255
4.2955 -6.65256 0.136108 0 255 255
4.2422 -6.61552 0.135077 0 255 255
3.8347 -6.0216 0.122704 0 255 255
3.77836 -5.97446 0.121501 0 255 255
3.77552 -6.0117 0.122016 0 255 255
3.74074 -5.99808 0.121501 0 255 255
3.70504 -5.98495 0.120985 0 255 255
3.67051 -5.971 0.12047 0 255 255
3.64549 -5.97461 0.120298 0 255 255
3.63188 -5.99458 0.12047 0 255 255
3.61923 -6.0139 0.120642 0 255 255
3.60032 -6.02524 0.120642 0 255 255
3.58648 -6.04512 0.120813 0 255 255
3.48785 -5.96396 0.118751 0 255 255
3.48918 -6.00948 0.119439 0 255 255
3.4603 -6.00309 0.119095 0 255 255
3.46625 -6.05732 0.119954 0 255 255
3.46202 -6.09426 0.12047 0 255 255
3.44777 -6.11381 0.120642 0 255 255
3.43724 -6.14266 0.120985 0 255 255
3.42764 -6.17092 0.121329 0 255 255
3.41789 -6.19916 0.121673 0 255 255
3.3984 -6.20987 0.121673 0 255 255
3.38842 -6.23809 0.122016 0 255 255
3.38304 -6.2751 0.122532 0 255 255
3.36692 -6.29511 0.122704 0 255 255
3.34713 -6.30565 0.122704 0 255 255
3.33662 -6.33383 0.123048 0 255 255
3.32597 -6.362 0.123391 0 255 255
3.32899 -6.4168 0.124251 0 255 255
3.36831 -6.54279 0.126485 0 255 255
3.35684 -6.57115 0.126828 0 255 255
3.26385 -6.43897 0.124079 0 255 255
3.23799 -6.44082 0.123907 0 255 255
3.23226 -6.47724 0.124422 0 255 255
3.21963 -6.50585 0.124766 0 255 255
3.20799 -6.53388 0.12511 0 255 255
3.20058 -6.57089 0.125625 0 255 255
3.18862 -6.59892 0.125969 0 255 255
3.18516 -6.64497 0.126656 0 255 255
3.17715 -6.68203 0.127172 0 255 255
3.16894 -6.71911 0.127688 0 255 255
3.16476 -6.76526 0.128375 0 255 255
3.16874 -6.82959 0.129406 0 255 255
3.16817 -6.88492 0.130265 0 255 255
3.18681 -6.98636 0.131984 0 255 255
3.2349 -7.1512 0.134905 0 255 255
3.23288 -7.20694 0.135765 0 255 255
3.21835 -7.23533 0.136108 0 255 255
3.20368 -7.26371 0.136452 0 255 255
3.17684 -7.26458 0.13628 0 255 255
3.11297 -7.18333 0.134562 0 255 255
2.94041 -6.84398 0.128031 0 255 255
2.91497 -6.84399 0.127859 0 255 255
2.89346 -6.85311 0.127859 0 255 255
2.87578 -6.87139 0.128031 0 255 255
2.86184 -6.89886 0.128375 0 255 255
2.84654 -6.92681 0.128719 0 255 255
2.83352 -6.95375 0.129062 0 255 255
2.81793 -6.98165 0.129406 0 255 255
2.80713 -7.01832 0.129922 0 255 255
2.79243 -7.04569 0.130265 0 255 255
2.77759 -7.07304 0.130609 0 255 255
2.76624 -7.10969 0.131125 0 255 255
2.75467 -7.14633 0.13164 0 255 255
2.74522 -7.19279 0.132328 0 255 255
2.73675 -7.23879 0.133015 0 255 255
2.72452 -7.27544 0.133531 0 255 255
2.72599 -7.34959 0.134734 0 255 255
3.65732 -10.0539 0.183884 0 255 255
3.62057 -10.0565 0.183712 0 255 255
3.58896 -10.0679 0.183712 0 255 255
3.55732 -10.0791 0.183712 0 255 255
3.52234 -10.0808 0.18354 0 255 255
3.49065 -10.0918 0.18354 0 255 255
3.45569 -10.0932 0.183368 0 255 255
3.42075 -10.0946 0.183196 0 255 255
3.38584 -10.0958 0.183025 0 255 255
3.35096 -10.0969 0.182853 0 255 255
3.3161 -10.0979 0.182681 0 255 255
3.27951 -10.0993 0.182509 0 255 255
3.24777 -10.1096 0.182509 0 255 255
3.21297 -10.1102 0.182337 0 255 255
3.17819 -10.1107 0.182165 0 255 255
3.14641 -10.1206 0.182165 0 255 255
3.11166 -10.1209 0.181994 0 255 255
3.07985 -10.1306 0.181994 0 255 255
2.9703 -9.88171 0.177353 0 255 255
2.9432 -9.91068 0.177697 0 255 255
2.89234 -9.85272 0.176494 0 255 255
2.83909 -9.78494 0.175119 0 255 255
2.81108 -9.80342 0.175291 0 255 255
2.76494 -9.76459 0.174432 0 255 255
2.74772 -9.82137 0.175291 0 255 255
2.70886 -9.80104 0.174776 0 255 255
2.72809 -9.99277 0.178041 0 255 255
2.67326 -9.91441 0.176494 0 255 255
2.63952 -9.91309 0.176322 0 255 255
2.66684 -10.1437 0.180275 0 255 255
1.81106 -6.97774 0.123907 0 255 255
1.78417 -6.96402 0.123563 0 255 255
1.75738 -6.9502 0.123219 0 255 255
1.73312 -6.94599 0.123048 0 255 255
1.70651 -6.93198 0.122704 0 255 255
1.68115 -6.92789 0.122532 0 255 255
1.65938 -6.93313 0.122532 0 255 255
1.633 -6.91885 0.122188 0 255 255
1.61125 -6.92395 0.122188 0 255 255
1.58726 -6.91923 0.122016 0 255 255
1.56551 -6.92418 0.122016 0 255 255
1.53168 -6.88054 0.121157 0 255 255
1.50577 -6.86578 0.120813 0 255 255
1.48419 -6.87048 0.120813 0 255 255
1.4626 -6.87511 0.120813 0 255 255
1.45535 -6.94817 0.122016 0 255 255
1.41736 -6.87437 0.120642 0 255 255
1.39973 -6.89839 0.120985 0 255 255
1.37414 -6.88314 0.120642 0 255 255
1.34938 -6.87784 0.12047 0 255 255
1.32777 -6.88205 0.12047 0 255 255
1.30428 -6.87637 0.120298 0 255 255
1.29733 -6.95906 0.121673 0 255 255
1.27185 -6.94343 0.121329 0 255 255
1.25003 -6.94739 0.121329 0 255 255
1.22994 -6.96113 0.121501 0 255 255
1.20807 -6.96496 0.121501 0 255 255
1.18618 -6.96872 0.121501 0 255 255
1.16593 -6.98228 0.121673 0 255 255
1.14438 -6.99597 0.121845 0 255 255
1.12398 -7.00941 0.122016 0 255 255
1.10195 -7.0129 0.122016 0 255 255
1.08296 -7.0361 0.12236 0 255 255
1.06234 -7.04935 0.122532 0 255 255
1.04165 -7.06254 0.122704 0 255 255
1.02535 -7.11544 0.123563 0 255 255
1.34058 -9.5146 0.165152 0 255 255
1.32159 -9.59801 0.166527 0 255 255
1.30209 -9.68139 0.167901 0 255 255
1.33024 -10.1315 0.175635 0 255 255
1.31874 -10.2943 0.178385 0 255 255
1.28639 -10.2984 0.178385 0 255 255
1.25524 -10.3124 0.178556 0 255 255
1.22103 -10.3165 0.178556 0 255 255
1.18747 -10.3103 0.178385 0 255 255
1.15619 -10.3239 0.178556 0 255 255
1.12375 -10.3275 0.178556 0 255 255
1.0913 -10.331 0.178556 0 255 255
1.05884 -10.3344 0.178556 0 255 255
1.02637 -10.3376 0.178556 0 255 255
0.20652 -2.30041 0.039698 0 255 255
0.199751 -2.31104 0.03987 0 255 255
0.19166 -2.30169 0.039698 0 255 255
0.298599 -3.72751 0.064273 0 255 255
0.277682 -3.6088 0.062211 0 255 255
0.270851 -3.6795 0.063414 0 255 255
0.260696 -3.70028 0.063758 0 255 255
0.248398 -3.6911 0.063586 0 255 255
0.131624 -2.27586 0.039183 0 255 255
0.124076 -2.27628 0.039183 0 255 255
0.116924 -2.27666 0.039183 0 255 255
0.108809 -2.25705 0.038839 0 255 255
0.102167 -2.26736 0.039011 0 255 255
0.094206 -2.24769 0.038667 0 255 255
0.086757 -2.23799 0.038495 0 255 255
0.080082 -2.24824 0.038667 0 255 255
0.073343 -2.25848 0.038839 0 255 255
0.028078 -1.07948 0.01856 0 255 255
0.023544 -1.02958 0.017701 0 255 255
0.020112 -1.01965 0.017529 0 255 255
0.016743 -1.00971 0.017357 0 255 255
0.013571 -1.00976 0.017357 0 255 255
0.010223 -1.0098 0.017357 0 255 255
0.00698 -0.999828 0.017185 0 255 255
0.003839 -0.999845 0.017185 0 255 255
0.000698 -0.999852 0.017185 0 255 255
-0.002443 -0.999849 0.017185 0 255 255
-0.00564 -1.00984 0.017357 0 255 255
-0.008725 -0.999814 0.017185 0 255 255
-0.011866 -0.999782 0.017185 0 255 255
-0.014857 -0.989742 0.017014 0 255 255
-0.018329 -1.00968 0.017357 0 255 255
-0.021892 -1.01961 0.017529 0 255 255
-0.024849 -1.00954 0.017357 0 255 255
-0.028298 -1.01946 0.017529 0 255 255
-0.031192 -1.00937 0.017357 0 255 255
-0.034363 -1.00927 0.017357 0 255 255
-0.037533 -1.00915 0.017357 0 255 255
-0.040879 -1.00902 0.017357 0 255 255
-0.044049 -1.00889 0.017357 0 255 255
-0.047218 -1.00875 0.017357 0 255 255
-0.049888 -0.998607 0.017185 0 255 255
-0.054086 -1.01841 0.017529 0 255 255
-0.057285 -1.01824 0.017529 0 255 255
-0.059298 -0.998092 0.017185 0 255 255
-0.063682 -1.01786 0.017529 0 255 255
-0.066399 -1.00767 0.017357 0 255 255
-0.069565 -1.00745 0.017357 0 255 255
-0.072729 -1.00723 0.017357 0 255 255
-0.076645 -1.01697 0.017529 0 255 255
-0.079839 -1.01672 0.017529 0 255 255
-0.083033 -1.01646 0.017529 0 255 255
-0.086226 -1.0162 0.017529 0 255 255
-0.089418 -1.01592 0.017529 0 255 255
-0.093696 -1.02558 0.017701 0 255 255
-0.095976 -1.01532 0.017529 0 255 255
-0.098193 -1.00507 0.017357 0 255 255
-0.102354 -1.0147 0.017529 0 255 255
-0.105718 -1.01435 0.017529 0 255 255
-0.108904 -1.01402 0.017529 0 255 255
-0.110991 -1.00373 0.017357 0 255 255
-0.115273 -1.01331 0.017529 0 255 255
-0.118456 -1.01295 0.017529 0 255 255
-0.121638 -1.01257 0.017529 0 255 255
-0.12377 -1.00224 0.017357 0 255 255
-0.128174 -1.01176 0.017529 0 255 255
-0.131352 -1.01136 0.017529 0 255 255
-0.134529 -1.01094 0.017529 0 255 255
-0.139054 -1.02042 0.017701 0 255 255
-0.142259 -1.01997 0.017701 0 255 255
-0.145463 -1.01952 0.017701 0 255 255
-0.147222 -1.00917 0.017529 0 255 255
-0.151866 -1.01859 0.017701 0 255 255
-0.155065 -1.01811 0.017701 0 255 255
-0.159799 -1.02749 0.017873 0 255 255
-0.163026 -1.02699 0.017873 0 255 255
-0.16323 -1.0067 0.017529 0 255 255
-0.168023 -1.01605 0.017701 0 255 255
-0.172877 -1.02538 0.017873 0 255 255
-0.174404 -1.01497 0.017701 0 255 255
-0.179316 -1.02427 0.017873 0 255 255
-0.182533 -1.0237 0.017873 0 255 255
-0.185748 -1.02312 0.017873 0 255 255
-0.188962 -1.02253 0.017873 0 255 255
-0.192351 -1.0219 0.017873 0 255 255
-0.197441 -1.03111 0.018045 0 255 255
-0.200679 -1.03049 0.018045 0 255 255
-0.203916 -1.02985 0.018045 0 255 255
-0.20715 -1.0292 0.018045 0 255 255
-0.208379 -1.01875 0.017873 0 255 255
-0.213613 -1.02788 0.018045 0 255 255
-0.216841 -1.02721 0.018045 0 255 255
-0.220067 -1.02652 0.018045 0 255 255
-0.223291 -1.02582 0.018045 0 255 255
-0.226691 -1.02508 0.018045 0 255 255
-0.229911 -1.02436 0.018045 0 255 255
-0.233128 -1.02363 0.018045 0 255 255
-0.236342 -1.0229 0.018045 0 255 255
-0.239555 -1.02215 0.018045 0 255 255
-0.242765 -1.02139 0.018045 0 255 255
-0.245972 -1.02062 0.018045 0 255 255
-0.249177 -1.01985 0.018045 0 255 255
-0.252558 -1.01901 0.018045 0 255 255
-0.26063 -1.03761 0.018388 0 255 255
-0.263888 -1.03679 0.018388 0 255 255
-0.264647 -1.02627 0.018217 0 255 255
-0.270578 -1.03506 0.018388 0 255 255
-0.276387 -1.04387 0.01856 0 255 255
-0.271897 -1.01402 0.018045 0 255 255
-0.280321 -1.03246 0.018388 0 255 255
-0.283563 -1.03158 0.018388 0 255 255
-0.286802 -1.03068 0.018388 0 255 255
-0.290039 -1.02978 0.018388 0 255 255
-0.293272 -1.02886 0.018388 0 255 255
-0.299275 -1.03754 0.01856 0 255 255
-0.299731 -1.027 0.018388 0 255 255
-0.305788 -1.03564 0.01856 0 255 255
-0.306178 -1.02509 0.018388 0 255 255
-0.312469 -1.03364 0.01856 0 255 255
-0.312792 -1.0231 0.018388 0 255 255
-0.316004 -1.02211 0.018388 0 255 255
-0.322197 -1.03065 0.01856 0 255 255
-0.325613 -1.02958 0.01856 0 255 255
-0.328846 -1.02855 0.01856 0 255 255
-0.332075 -1.02751 0.01856 0 255 255
-0.335302 -1.02646 0.01856 0 255 255
-0.338525 -1.02541 0.01856 0 255 255
-0.344909 -1.03382 0.018732 0 255 255
-0.34514 -1.0232 0.01856 0 255 255
-0.351578 -1.03157 0.018732 0 255 255
-0.354817 -1.03046 0.018732 0 255 255
-0.358053 -1.02934 0.018732 0 255 255
-0.361284 -1.02821 0.018732 0 255 255
-0.364513 -1.02707 0.018732 0 255 255
-0.371111 -1.03533 0.018904 0 255 255
-0.377765 -1.04357 0.019076 0 255 255
-0.381042 -1.04237 0.019076 0 255 255
-0.384315 -1.04117 0.019076 0 255 255
-0.387765 -1.03989 0.019076 0 255 255
-0.39103 -1.03867 0.019076 0 255 255
-0.390919 -1.02802 0.018904 0 255 255
-0.39773 -1.03612 0.019076 0 255 255
-0.397191 -1.02561 0.018904 0 255 255
-0.404052 -1.03367 0.019076 0 255 255
-0.411148 -1.04163 0.019248 0 255 255
-0.410718 -1.03104 0.019076 0 255 255
-0.417685 -1.03902 0.019248 0 255 255
-0.420947 -1.03771 0.019248 0 255 255
-0.420417 -1.02713 0.019076 0 255 255
-0.427459 -1.03504 0.019248 0 255 255
-0.430889 -1.03362 0.019248 0 255 255
-0.434134 -1.03226 0.019248 0 255 255
-0.437374 -1.03089 0.019248 0 255 255
-0.440431 -1.02959 0.019248 0 255 255
-0.443843 -1.02812 0.019248 0 255 255
-0.451062 -1.03589 0.01942 0 255 255
-0.450294 -1.02531 0.019248 0 255 255
-0.457562 -1.03303 0.01942 0 255 255
-0.460805 -1.03159 0.01942 0 255 255
-0.464044 -1.03014 0.01942 0 255 255
-0.467278 -1.02868 0.01942 0 255 255
-0.474671 -1.03629 0.019591 0 255 255
-0.473911 -1.02564 0.01942 0 255 255
-0.481353 -1.03321 0.019591 0 255 255
-0.484777 -1.03161 0.019591 0 255 255
-0.488015 -1.03008 0.019591 0 255 255
-0.491069 -1.02862 0.019591 0 255 255
-0.498634 -1.03609 0.019763 0 255 255
-0.501887 -1.03451 0.019763 0 255 255
-0.505134 -1.03293 0.019763 0 255 255
-0.508557 -1.03125 0.019763 0 255 255
-0.511794 -1.02965 0.019763 0 255 255
-0.515026 -1.02804 0.019763 0 255 255
-0.52276 -1.03534 0.019935 0 255 255
-0.52619 -1.0336 0.019935 0 255 255
-0.529435 -1.03194 0.019935 0 255 255
-0.532674 -1.03027 0.019935 0 255 255
-0.540528 -1.03746 0.020107 0 255 255
-0.539137 -1.0269 0.019935 0 255 255
-0.551711 -1.04288 0.020279 0 255 255
-0.554985 -1.04114 0.020279 0 255 255
-0.553522 -1.03059 0.020107 0 255 255
-0.561516 -1.03764 0.020279 0 255 255
-0.564773 -1.03587 0.020279 0 255 255
-0.572838 -1.04285 0.020451 0 255 255
-0.585794 -1.05854 0.020794 0 255 255
-0.594171 -1.06533 0.020966 0 255 255
-0.597515 -1.06345 0.020966 0 255 255
-0.610892 -1.07887 0.02131 0 255 255
-0.614278 -1.07694 0.02131 0 255 255
-0.161596 -0.240753 0.004984 0 255 255
-0.151155 -0.223675 0.00464 0 255 255
-0.157441 -0.231493 0.004812 0 255 255
-0.158167 -0.230998 0.004812 0 255 255
-0.181637 -0.263396 0.005499 0 255 255
-0.205272 -0.295678 0.006187 0 255 255
-0.217655 -0.311422 0.00653 0 255 255
-0.230139 -0.327091 0.006874 0 255 255
-0.248503 -0.350844 0.00739 0 255 255
-0.237995 -0.33378 0.007046 0 255 255
-0.227382 -0.316785 0.006702 0 255 255
-0.240087 -0.332278 0.007046 0 255 255
-0.229423 -0.31531 0.006702 0 255 255
-0.224504 -0.306521 0.00653 0 255 255
-0.231399 -0.313862 0.006702 0 255 255
-0.232384 -0.313134 0.006702 0 255 255
-0.233367 -0.312402 0.006702 0 255 255
-0.228338 -0.303676 0.00653 0 255 255
-0.235325 -0.31093 0.006702 0 255 255
-0.236301 -0.310189 0.006702 0 255 255
-0.237274 -0.309445 0.006702 0 255 255
-0.226027 -0.292867 0.006359 0 255 255
-0.23308 -0.300052 0.00653 0 255 255
-0.24018 -0.307195 0.006702 0 255 255
-0.222594 -0.282867 0.006187 0 255 255
-0.223482 -0.282166 0.006187 0 255 255
-0.23065 -0.289241 0.006359 0 255 255
-0.225299 -0.280717 0.006187 0 255 255
-0.22618 -0.280008 0.006187 0 255 255
-0.227059 -0.279296 0.006187 0 255 255
-0.227935 -0.278581 0.006187 0 255 255
-0.235165 -0.285582 0.006359 0 255 255
-0.242441 -0.29254 0.00653 0 255 255
-0.236954 -0.284099 0.006359 0 255 255
-0.244325 -0.290969 0.00653 0 255 255
-0.245238 -0.2902 0.00653 0 255 255
-0.252626 -0.297044 0.006702 0 255 255
-0.253558 -0.296249 0.006702 0 255 255
-0.254487 -0.295451 0.006702 0 255 255
-0.261963 -0.302205 0.006874 0 255 255
-0.262911 -0.301381 0.006874 0 255 255
-0.270453 -0.308067 0.007046 0 255 255
-0.27804 -0.314709 0.007218 0 255 255
-0.279027 -0.313834 0.007218 0 255 255
-0.280066 -0.312907 0.007218 0 255 255
-0.287739 -0.319455 0.00739 0 255 255
-0.288742 -0.318549 0.00739 0 255 255
-0.303217 -0.332415 0.007733 0 255 255
-0.30426 -0.33146 0.007733 0 255 255
-0.3053 -0.330503 0.007733 0 255 255
-0.306337 -0.329542 0.007733 0 255 255
-0.321031 -0.343182 0.008077 0 255 255
-0.322108 -0.342171 0.008077 0 255 255
-0.330058 -0.348416 0.008249 0 255 255
-0.317411 -0.332848 0.007905 0 255 255
-0.325378 -0.339064 0.008077 0 255 255
-0.326441 -0.33804 0.008077 0 255 255
-0.33447 -0.344183 0.008249 0 255 255
-0.328559 -0.335982 0.008077 0 255 255
-0.336626 -0.342075 0.008249 0 255 255
-0.337758 -0.340957 0.008249 0 255 255
-0.352945 -0.354056 0.008593 0 255 255
-0.339894 -0.338828 0.008249 0 255 255
-0.34806 -0.344795 0.008421 0 255 255
-0.356267 -0.350714 0.008593 0 255 255
-0.378809 -0.370568 0.009108 0 255 255
-0.401479 -0.390285 0.009624 0 255 255
-0.402703 -0.389021 0.009624 0 255 255
-0.418349 -0.401603 0.009968 0 255 255
-0.426843 -0.407188 0.010139 0 255 255
-0.449889 -0.426481 0.010655 0 255 255
-0.458505 -0.431922 0.010827 0 255 255
-0.467159 -0.437312 0.010999 0 255 255
-0.461209 -0.429032 0.010827 0 255 255
-0.469973 -0.434286 0.010999 0 255 255
-0.478699 -0.43957 0.011171 0 255 255
-0.487464 -0.444804 0.011342 0 255 255
-0.488859 -0.44327 0.011342 0 255 255
-0.497677 -0.448425 0.011514 0 255 255
-0.499083 -0.446859 0.011514 0 255 255
-0.507955 -0.451935 0.011686 0 255 255
-0.509372 -0.450337 0.011686 0 255 255
-0.518375 -0.455243 0.011858 0 255 255
-0.519803 -0.453613 0.011858 0 255 255
-0.528779 -0.458528 0.01203 0 255 255
-0.530217 -0.456864 0.01203 0 255 255
-0.539245 -0.461699 0.012202 0 255 255
-0.540693 -0.460003 0.012202 0 255 255
-0.534499 -0.451847 0.01203 0 255 255
-0.535916 -0.450166 0.01203 0 255 255
-0.545004 -0.454886 0.012202 0 255 255
-0.554127 -0.459555 0.012373 0 255 255
-0.54793 -0.451358 0.012202 0 255 255
-0.533871 -0.436968 0.011858 0 255 255
-0.535241 -0.435289 0.011858 0 255 255
-0.528829 -0.427321 0.011686 0 255 255
-0.545762 -0.438177 0.01203 0 255 255
