ply
format ascii 1.0
element vertex 1310
property float x
property float y
property float z
property uchar red
property uchar green
property uchar blue
end_header
2.75368 0.255451 0.438161 255 0 255
2.75447 0.246798 0.438161 255 0 255
2.74539 0.237295 0.436596 255 0 255
2.75597 0.229488 0.438161 255 0 255
2.74683 0.220039 0.436596 255 0 255
2.74751 0.211409 0.436596 255 0 255
2.74812 0.203255 0.436596 255 0 255
2.74875 0.194623 0.436596 255 0 255
2.73949 0.185319 0.435032 255 0 255
2.74006 0.176711 0.435032 255 0 255
2.7406 0.168102 0.435032 255 0 255
2.75097 0.160066 0.436596 255 0 255
2.7416 0.15088 0.435032 255 0 255
2.74206 0.142266 0.435032 255 0 255
2.7425 0.13365 0.435032 255 0 255
2.7429 0.125034 0.435032 255 0 255
2.74328 0.116417 0.435032 255 0 255
2.74363 0.107799 0.435032 255 0 255
2.74396 0.099178 0.435032 255 0 255
2.74426 0.090556 0.435032 255 0 255
2.73466 0.08164 0.433467 255 0 255
2.7349 0.073049 0.433467 255 0 255
2.74499 0.06469 0.435032 255 0 255
2.74518 0.056065 0.435032 255 0 255
2.73546 0.047747 0.433467 255 0 255
2.74547 0.039295 0.435032 255 0 255
2.74558 0.03067 0.435032 255 0 255
2.74566 0.022045 0.435032 255 0 255
2.74572 0.013418 0.435032 255 0 255
2.74575 0.004791 0.435032 255 0 255
2.73587 -0.00382 0.433467 255 0 255
2.73585 -0.012415 0.433467 255 0 255
2.7358 -0.020532 0.433467 255 0 255
2.73571 -0.029604 0.433467 255 0 255
2.7356 -0.038676 0.433467 255 0 255
2.73547 -0.04727 0.433467 255 0 255
2.73531 -0.055386 0.433467 255 0 255
2.73513 -0.063979 0.433467 255 0 255
2.73492 -0.072094 0.433467 255 0 255
2.73467 -0.081163 0.433467 255 0 255
2.7344 -0.089754 0.433467 255 0 255
2.73411 -0.098344 0.433467 255 0 255
2.73378 -0.106933 0.433467 255 0 255
2.73343 -0.115521 0.433467 255 0 255
2.74295 -0.124077 0.435032 255 0 255
2.73268 -0.132216 0.433467 255 0 255
2.73225 -0.1408 0.433467 255 0 255
2.73179 -0.149383 0.433467 255 0 255
2.73131 -0.157965 0.433467 255 0 255
2.7308 -0.166544 0.433467 255 0 255
2.73026 -0.175123 0.433467 255 0 255
2.7297 -0.183699 0.433467 255 0 255
2.72911 -0.192274 0.433467 255 0 255
2.72849 -0.200847 0.433467 255 0 255
2.72785 -0.209417 0.433467 255 0 255
2.72718 -0.217986 0.433467 255 0 255
2.72648 -0.226553 0.433467 255 0 255
2.72575 -0.235117 0.433467 255 0 255
2.725 -0.243679 0.433467 255 0 255
2.72422 -0.252239 0.433467 255 0 255
2.73325 -0.261737 0.435032 255 0 255
2.72258 -0.269351 0.433467 255 0 255
2.72172 -0.277902 0.433467 255 0 255
2.72084 -0.286452 0.433467 255 0 255
2.71997 -0.294523 0.433467 255 0 255
2.71904 -0.303067 0.433467 255 0 255
2.71807 -0.311607 0.433467 255 0 255
2.71708 -0.320145 0.433467 255 0 255
2.72586 -0.329866 0.435032 255 0 255
2.71501 -0.33721 0.433467 255 0 255
2.72374 -0.346986 0.435032 255 0 255
2.71284 -0.354263 0.433467 255 0 255
2.7215 -0.364093 0.435032 255 0 255
2.71056 -0.371301 0.433467 255 0 255
2.71916 -0.381186 0.435032 255 0 255
2.71795 -0.389726 0.435032 255 0 255
2.71671 -0.398263 0.435032 255 0 255
2.71545 -0.406796 0.435032 255 0 255
2.71416 -0.415325 0.435032 255 0 255
2.71284 -0.423849 0.435032 255 0 255
2.72125 -0.433925 0.436596 255 0 255
2.71012 -0.440886 0.435032 255 0 255
2.71847 -0.451014 0.436596 255 0 255
2.7073 -0.457905 0.435032 255 0 255
2.71558 -0.468086 0.436596 255 0 255
2.7141 -0.476615 0.436596 255 0 255
2.69314 -0.481662 0.433467 255 0 255
2.6819 -0.488351 0.431902 255 0 255
2.71525 0.432969 0.335961 255 0 255
2.75582 0.430565 0.340812 255 0 255
2.76697 0.423406 0.342025 255 0 255
2.77811 0.416182 0.343238 255 0 255
2.76958 0.406013 0.342025 255 0 255
2.76102 0.395902 0.340812 255 0 255
2.77208 0.388603 0.342025 255 0 255
2.75361 0.377198 0.339599 255 0 255
2.76463 0.369862 0.340812 255 0 255
2.76577 0.361175 0.340812 255 0 255
2.76689 0.352485 0.340812 255 0 255
2.74829 0.341343 0.338387 255 0 255
2.74935 0.332707 0.338387 255 0 255
2.75032 0.324548 0.338387 255 0 255
2.75133 0.315907 0.338387 255 0 255
2.75231 0.307262 0.338387 255 0 255
2.75326 0.298613 0.338387 255 0 255
2.75418 0.289961 0.338387 255 0 255
2.75508 0.281308 0.338387 255 0 255
2.74607 0.271674 0.337174 255 0 255
2.74691 0.263045 0.337174 255 0 255
2.74772 0.254415 0.337174 255 0 255
2.74851 0.245781 0.337174 255 0 255
2.73938 0.236294 0.335961 255 0 255
2.74011 0.227686 0.335961 255 0 255
2.7507 0.219866 0.337174 255 0 255
2.74148 0.210464 0.335961 255 0 255
2.752 0.203059 0.337174 255 0 255
2.74272 0.193715 0.335961 255 0 255
2.75322 0.185765 0.337174 255 0 255
2.74388 0.176476 0.335961 255 0 255
2.74442 0.167856 0.335961 255 0 255
2.74494 0.159234 0.335961 255 0 255
2.74542 0.15061 0.335961 255 0 255
2.74588 0.141984 0.335961 255 0 255
2.7364 0.132874 0.334748 255 0 255
2.7368 0.124277 0.334748 255 0 255
2.73718 0.115679 0.334748 255 0 255
2.74745 0.107468 0.335961 255 0 255
2.74777 0.098836 0.335961 255 0 255
2.73815 0.089876 0.334748 255 0 255
2.73842 0.081274 0.334748 255 0 255
2.73866 0.072671 0.334748 255 0 255
2.73887 0.064068 0.334748 255 0 255
2.73906 0.055462 0.334748 255 0 255
2.72929 0.047163 0.333535 255 0 255
2.73935 0.038729 0.334748 255 0 255
2.73946 0.030123 0.334748 255 0 255
2.73954 0.021518 0.334748 255 0 255
2.73959 0.01291 0.334748 255 0 255
2.73962 0.004303 0.334748 255 0 255
2.73962 -0.004303 0.334748 255 0 255
2.72967 -0.012863 0.333535 255 0 255
2.73954 -0.021039 0.334748 255 0 255
2.73946 -0.030123 0.334748 255 0 255
2.73934 -0.039207 0.334748 255 0 255
2.72928 -0.04764 0.333535 255 0 255
2.73905 -0.05594 0.334748 255 0 255
2.72894 -0.064311 0.333535 255 0 255
2.72874 -0.072408 0.333535 255 0 255
2.7384 -0.081752 0.334748 255 0 255
2.73813 -0.090355 0.334748 255 0 255
2.72792 -0.098598 0.333535 255 0 255
2.73751 -0.107557 0.334748 255 0 255
2.72724 -0.115736 0.333535 255 0 255
2.72689 -0.123827 0.333535 255 0 255
2.72649 -0.132393 0.333535 255 0 255
2.72606 -0.140958 0.333535 255 0 255
2.7256 -0.149522 0.333535 255 0 255
2.72512 -0.158084 0.333535 255 0 255
2.72461 -0.166644 0.333535 255 0 255
2.73398 -0.17584 0.334748 255 0 255
2.72351 -0.18376 0.333535 255 0 255
2.72292 -0.192315 0.333535 255 0 255
2.7124 -0.200138 0.332322 255 0 255
2.72165 -0.20942 0.333535 255 0 255
2.72098 -0.217969 0.333535 255 0 255
2.72028 -0.226516 0.333535 255 0 255
2.71956 -0.235061 0.333535 255 0 255
2.72869 -0.24449 0.334748 255 0 255
2.71803 -0.252144 0.333535 255 0 255
2.71722 -0.260682 0.333535 255 0 255
2.72627 -0.270196 0.334748 255 0 255
2.72541 -0.278759 0.334748 255 0 255
2.72452 -0.28732 0.334748 255 0 255
2.72365 -0.295402 0.334748 255 0 255
2.71285 -0.302856 0.333535 255 0 255
2.72174 -0.31251 0.334748 255 0 255
2.71089 -0.319895 0.333535 255 0 255
2.71972 -0.329605 0.334748 255 0 255
2.71868 -0.338147 0.334748 255 0 255
2.7176 -0.346686 0.334748 255 0 255
2.7165 -0.355222 0.334748 255 0 255
2.72521 -0.365073 0.335961 255 0 255
2.72405 -0.373632 0.335961 255 0 255
2.71303 -0.380809 0.334748 255 0 255
2.71182 -0.38933 0.334748 255 0 255
2.7204 -0.399289 0.335961 255 0 255
2.70932 -0.406361 0.334748 255 0 255
2.71784 -0.416374 0.335961 255 0 255
2.70671 -0.423376 0.334748 255 0 255
2.71517 -0.433442 0.335961 255 0 255
2.7138 -0.44197 0.335961 255 0 255
2.7026 -0.448867 0.334748 255 0 255
2.71097 -0.459012 0.335961 255 0 255
2.71929 -0.469215 0.337174 255 0 255
2.70803 -0.476037 0.335961 255 0 255
2.70652 -0.484542 0.335961 255 0 255
2.69522 -0.491262 0.334748 255 0 255
2.66438 -0.494295 0.33111 255 0 255
2.77582 0.433193 0.244068 255 0 255
2.71808 0.415438 0.238875 255 0 255
2.77849 0.415743 0.244068 255 0 255
2.77978 0.407013 0.244068 255 0 255
2.77118 0.396866 0.243202 255 0 255
2.77241 0.388157 0.243202 255 0 255
2.77362 0.379445 0.243202 255 0 255
2.7748 0.37073 0.243202 255 0 255
2.76607 0.360723 0.242337 255 0 255
2.75731 0.350773 0.241471 255 0 255
2.7584 0.34211 0.241471 255 0 255
2.76935 0.334637 0.242337 255 0 255
2.77033 0.326419 0.242337 255 0 255
2.76144 0.31658 0.241471 255 0 255
2.76242 0.307902 0.241471 255 0 255
2.76338 0.299223 0.241471 255 0 255
2.7544 0.289498 0.240606 255 0 255
2.7652 0.281854 0.241471 255 0 255
2.75616 0.272187 0.240606 255 0 255
2.757 0.263526 0.240606 255 0 255
2.75782 0.254864 0.240606 255 0 255
2.74868 0.245312 0.239741 255 0 255
2.75936 0.237532 0.240606 255 0 255
2.75017 0.228038 0.239741 255 0 255
2.75087 0.219396 0.239741 255 0 255
2.75155 0.210754 0.239741 255 0 255
2.76209 0.203319 0.240606 255 0 255
2.74285 0.193243 0.238875 255 0 255
2.74344 0.184624 0.238875 255 0 255
2.744 0.176003 0.238875 255 0 255
2.74454 0.167383 0.238875 255 0 255
2.755 0.159335 0.239741 255 0 255
2.76544 0.151224 0.240606 255 0 255
2.75595 0.142022 0.239741 255 0 255
2.75638 0.133362 0.239741 255 0 255
2.75679 0.124703 0.239741 255 0 255
2.74721 0.115623 0.238875 255 0 255
2.74756 0.106992 0.238875 255 0 255
2.75784 0.098716 0.239741 255 0 255
2.75814 0.09005 0.239741 255 0 255
2.74845 0.081092 0.238875 255 0 255
2.74869 0.072457 0.238875 255 0 255
2.73894 0.06359 0.23801 255 0 255
2.73913 0.054985 0.23801 255 0 255
2.73928 0.046857 0.23801 255 0 255
2.73941 0.038252 0.23801 255 0 255
2.73952 0.029646 0.23801 255 0 255
2.74956 0.021115 0.238875 255 0 255
2.73965 0.012432 0.23801 255 0 255
2.73968 0.003825 0.23801 255 0 255
2.72971 -0.004764 0.237144 255 0 255
2.71972 -0.013291 0.236279 255 0 255
2.7396 -0.021517 0.23801 255 0 255
2.72955 -0.030491 0.237144 255 0 255
2.73939 -0.039686 0.23801 255 0 255
2.74922 -0.048468 0.238875 255 0 255
2.74906 -0.056625 0.238875 255 0 255
2.74887 -0.065261 0.238875 255 0 255
2.74866 -0.073416 0.238875 255 0 255
2.73845 -0.082232 0.23801 255 0 255
2.74813 -0.091165 0.238875 255 0 255
2.74783 -0.099798 0.238875 255 0 255
2.73755 -0.108037 0.23801 255 0 255
2.7372 -0.116637 0.23801 255 0 255
2.73684 -0.124758 0.23801 255 0 255
2.74638 -0.13384 0.238875 255 0 255
2.736 -0.141951 0.23801 255 0 255
2.73554 -0.150546 0.23801 255 0 255
2.73505 -0.159139 0.23801 255 0 255
2.73454 -0.167731 0.23801 255 0 255
2.72406 -0.17568 0.237144 255 0 255
2.73343 -0.184909 0.23801 255 0 255
2.7229 -0.192792 0.237144 255 0 255
2.72228 -0.201345 0.237144 255 0 255
2.73157 -0.210662 0.23801 255 0 255
2.72096 -0.218446 0.237144 255 0 255
2.72026 -0.226993 0.237144 255 0 255
2.72946 -0.236397 0.23801 255 0 255
2.72871 -0.244971 0.23801 255 0 255
2.72792 -0.253542 0.23801 255 0 255
2.72711 -0.262111 0.23801 255 0 255
2.73619 -0.271661 0.238875 255 0 255
2.72541 -0.27924 0.23801 255 0 255
2.73443 -0.288848 0.238875 255 0 255
2.73356 -0.29696 0.238875 255 0 255
2.73261 -0.305546 0.238875 255 0 255
2.73164 -0.314129 0.238875 255 0 255
2.73064 -0.322709 0.238875 255 0 255
2.71972 -0.330086 0.23801 255 0 255
2.72856 -0.33986 0.238875 255 0 255
2.72748 -0.34843 0.238875 255 0 255
2.72637 -0.356997 0.238875 255 0 255
2.72523 -0.365561 0.238875 255 0 255
2.73394 -0.375476 0.239741 255 0 255
2.72288 -0.382676 0.238875 255 0 255
2.73153 -0.392646 0.239741 255 0 255
2.72043 -0.399777 0.238875 255 0 255
2.72901 -0.409801 0.239741 255 0 255
2.72771 -0.418372 0.239741 255 0 255
2.72638 -0.42694 0.239741 255 0 255
2.72502 -0.435503 0.239741 255 0 255
2.72364 -0.444061 0.239741 255 0 255
2.72223 -0.452616 0.239741 255 0 255
2.73062 -0.462831 0.240606 255 0 255
2.71934 -0.469711 0.239741 255 0 255
2.73747 -0.481705 0.241471 255 0 255
2.72614 -0.488545 0.240606 255 0 255
2.71479 -0.495319 0.239741 255 0 255
2.69363 -0.500207 0.23801 255 0 255
2.74314 0.427602 0.144021 255 0 255
2.76421 0.421996 0.145057 255 0 255
2.75565 0.411834 0.144539 255 0 255
2.75693 0.403176 0.144539 255 0 255
2.7483 0.393098 0.144021 255 0 255
2.75941 0.385845 0.144539 255 0 255
2.76061 0.377174 0.144539 255 0 255
2.75188 0.367179 0.144021 255 0 255
2.75302 0.358532 0.144021 255 0 255
2.75413 0.349881 0.144021 255 0 255
2.75522 0.341227 0.144021 255 0 255
2.75628 0.332569 0.144021 255 0 255
2.75725 0.32439 0.144021 255 0 255
2.74833 0.314591 0.143503 255 0 255
2.75923 0.307059 0.144021 255 0 255
2.75026 0.297317 0.143503 255 0 255
2.75118 0.288674 0.143503 255 0 255
2.75207 0.28003 0.143503 255 0 255
2.72395 0.259887 0.141949 255 0 255
2.7347 0.252246 0.142467 255 0 255
2.73548 0.243653 0.142467 255 0 255
2.72628 0.234205 0.141949 255 0 255
2.727 0.225638 0.141949 255 0 255
2.7277 0.217069 0.141949 255 0 255
2.74828 0.210021 0.142985 255 0 255
2.71901 0.199671 0.141431 255 0 255
2.71963 0.19113 0.141431 255 0 255
2.73018 0.183253 0.141949 255 0 255
2.69088 0.172124 0.139876 255 0 255
2.73128 0.166095 0.141949 255 0 255
2.75172 0.158664 0.142985 255 0 255
2.73226 0.148932 0.141949 255 0 255
2.73272 0.140347 0.141949 255 0 255
2.73315 0.13176 0.141949 255 0 255
2.73355 0.123173 0.141949 255 0 255
2.73392 0.114586 0.141949 255 0 255
2.73427 0.105995 0.141949 255 0 255
2.73459 0.097406 0.141949 255 0 255
2.73488 0.088813 0.141949 255 0 255
2.74513 0.080514 0.142467 255 0 255
2.73538 0.071629 0.141949 255 0 255
2.71563 0.062574 0.140913 255 0 255
2.71581 0.054043 0.140913 255 0 255
2.72594 0.046153 0.141431 255 0 255
2.7061 0.037314 0.140395 255 0 255
2.69622 0.028707 0.139876 255 0 255
2.72626 0.02046 0.141431 255 0 255
2.71632 0.011852 0.140913 255 0 255
2.71635 0.003318 0.140913 255 0 255
2.70636 -0.005196 0.140395 255 0 255
2.71631 -0.013749 0.140913 255 0 255
2.71626 -0.021808 0.140913 255 0 255
2.71617 -0.030815 0.140913 255 0 255
2.72604 -0.039969 0.141431 255 0 255
2.7259 -0.048533 0.141431 255 0 255
2.72575 -0.05662 0.141431 255 0 255
2.72555 -0.065183 0.141431 255 0 255
2.73533 -0.073538 0.141949 255 0 255
2.72509 -0.082307 0.141431 255 0 255
2.7348 -0.091201 0.141949 255 0 255
2.72452 -0.099427 0.141431 255 0 255
2.71422 -0.107591 0.140913 255 0 255
2.72384 -0.116544 0.141431 255 0 255
2.71351 -0.124169 0.140913 255 0 255
2.7131 -0.132693 0.140913 255 0 255
2.71267 -0.141216 0.140913 255 0 255
2.73216 -0.150838 0.141949 255 0 255
2.70176 -0.157675 0.140395 255 0 255
2.70126 -0.166162 0.140395 255 0 255
2.71069 -0.175292 0.140913 255 0 255
2.71012 -0.183807 0.140913 255 0 255
2.70953 -0.19232 0.140913 255 0 255
2.70891 -0.200832 0.140913 255 0 255
2.70827 -0.209341 0.140913 255 0 255
2.69764 -0.217047 0.140395 255 0 255
2.7069 -0.226353 0.140913 255 0 255
2.71613 -0.23572 0.141431 255 0 255
2.70543 -0.243357 0.140913 255 0 255
2.71459 -0.252781 0.141431 255 0 255
2.71378 -0.261308 0.141431 255 0 255
2.72289 -0.27082 0.141949 255 0 255
2.71209 -0.278353 0.141431 255 0 255
2.7112 -0.286872 0.141431 255 0 255
2.71034 -0.294915 0.141431 255 0 255
2.71932 -0.30454 0.141949 255 0 255
2.71835 -0.313082 0.141949 255 0 255
2.71735 -0.32162 0.141949 255 0 255
2.71633 -0.330155 0.141949 255 0 255
2.71528 -0.338687 0.141949 255 0 255
2.7142 -0.347216 0.141949 255 0 255
2.7131 -0.355741 0.141949 255 0 255
2.70207 -0.362933 0.141431 255 0 255
2.69102 -0.37006 0.140913 255 0 255
2.69973 -0.379904 0.141431 255 0 255
2.70841 -0.389806 0.141949 255 0 255
2.69729 -0.396859 0.141431 255 0 255
2.67628 -0.402361 0.140395 255 0 255
2.69475 -0.413799 0.141431 255 0 255
2.69343 -0.422262 0.141431 255 0 255
2.6921 -0.430722 0.141431 255 0 255
2.69073 -0.439177 0.141431 255 0 255
2.68934 -0.447628 0.141431 255 0 255
2.70761 -0.459416 0.142467 255 0 255
2.71599 -0.469621 0.142985 255 0 255
2.69483 -0.474687 0.141949 255 0 255
2.70316 -0.484914 0.142467 255 0 255
2.68197 -0.489815 0.141431 255 0 255
2.66078 -0.494588 0.140395 255 0 255
2.67864 0.408453 0.046572 255 0 255
2.75902 0.411846 0.047947 255 0 255
2.77019 0.404622 0.048119 255 0 255
2.77145 0.395916 0.048119 255 0 255
2.76278 0.385825 0.047947 255 0 255
2.74646 0.357191 0.047604 255 0 255
2.73765 0.347302 0.047432 255 0 255
2.74865 0.339927 0.047604 255 0 255
2.73978 0.330094 0.047432 255 0 255
2.74075 0.321963 0.047432 255 0 255
2.74174 0.313352 0.047432 255 0 255
2.73278 0.303632 0.04726 255 0 255
2.74366 0.296119 0.047432 255 0 255
2.74458 0.287497 0.047432 255 0 255
2.72557 0.276853 0.047088 255 0 255
2.75628 0.271227 0.047604 255 0 255
2.75712 0.262566 0.047604 255 0 255
2.75793 0.253903 0.047604 255 0 255
2.74875 0.244352 0.047432 255 0 255
2.74951 0.235717 0.047432 255 0 255
2.75023 0.227077 0.047432 255 0 255
2.75093 0.218435 0.047432 255 0 255
2.75161 0.209792 0.047432 255 0 255
2.76219 0.202357 0.047604 255 0 255
2.75284 0.192981 0.047432 255 0 255
2.75343 0.184331 0.047432 255 0 255
2.73404 0.174406 0.047088 255 0 255
2.74455 0.166422 0.04726 255 0 255
2.73508 0.157225 0.047088 255 0 255
2.73556 0.148633 0.047088 255 0 255
2.73601 0.140037 0.047088 255 0 255
2.73644 0.13144 0.047088 255 0 255
2.73684 0.122843 0.047088 255 0 255
2.72722 0.113828 0.046916 255 0 255
2.73756 0.105645 0.047088 255 0 255
2.73788 0.097044 0.047088 255 0 255
2.73817 0.088442 0.047088 255 0 255
2.72844 0.079548 0.046916 255 0 255
2.70868 0.070457 0.046572 255 0 255
2.75887 0.063089 0.047432 255 0 255
2.74906 0.054225 0.04726 255 0 255
2.74921 0.046067 0.04726 255 0 255
2.74934 0.037431 0.04726 255 0 255
2.74944 0.028794 0.04726 255 0 255
2.73952 0.020082 0.047088 255 0 255
2.74957 0.011518 0.04726 255 0 255
2.74959 0.002879 0.04726 255 0 255
2.73959 -0.005738 0.047088 255 0 255
2.73956 -0.014344 0.047088 255 0 255
2.7495 -0.022555 0.04726 255 0 255
2.72942 -0.031442 0.046916 255 0 255
2.7293 -0.040493 0.046916 255 0 255
2.73915 -0.049247 0.047088 255 0 255
2.719 -0.056955 0.046744 255 0 255
2.71881 -0.065497 0.046744 255 0 255
2.7186 -0.073563 0.046744 255 0 255
2.71834 -0.082578 0.046744 255 0 255
2.71807 -0.091118 0.046744 255 0 255
2.71777 -0.099656 0.046744 255 0 255
2.72744 -0.108592 0.046916 255 0 255
2.7071 -0.116301 0.046572 255 0 255
2.71673 -0.124792 0.046744 255 0 255
2.71633 -0.133326 0.046744 255 0 255
2.73587 -0.142902 0.047088 255 0 255
2.7354 -0.151496 0.047088 255 0 255
2.74489 -0.160673 0.04726 255 0 255
2.74438 -0.169296 0.04726 255 0 255
2.73385 -0.17727 0.047088 255 0 255
2.73328 -0.185857 0.047088 255 0 255
2.73269 -0.194443 0.047088 255 0 255
2.73206 -0.203027 0.047088 255 0 255
2.73141 -0.211609 0.047088 255 0 255
2.7407 -0.220993 0.04726 255 0 255
2.73999 -0.229602 0.04726 255 0 255
2.7293 -0.237342 0.047088 255 0 255
2.70862 -0.244121 0.046744 255 0 255
2.72775 -0.254486 0.047088 255 0 255
2.70703 -0.261134 0.046744 255 0 255
2.7062 -0.269638 0.046744 255 0 255
2.70534 -0.278138 0.046744 255 0 255
2.71439 -0.287689 0.046916 255 0 255
2.70359 -0.294659 0.046744 255 0 255
2.71259 -0.304265 0.046916 255 0 255
2.71162 -0.312786 0.046916 255 0 255
2.71062 -0.321303 0.046916 255 0 255
2.7096 -0.329817 0.046916 255 0 255
2.71847 -0.339567 0.047088 255 0 255
2.70747 -0.346835 0.046916 255 0 255
2.7262 -0.357942 0.04726 255 0 255
2.72506 -0.366505 0.04726 255 0 255
2.72389 -0.375064 0.04726 255 0 255
2.7227 -0.38362 0.04726 255 0 255
2.72148 -0.392172 0.04726 255 0 255
2.72024 -0.400719 0.04726 255 0 255
2.71897 -0.409263 0.04726 255 0 255
2.71767 -0.417803 0.04726 255 0 255
2.72622 -0.427889 0.047432 255 0 255
2.71499 -0.43487 0.04726 255 0 255
2.71361 -0.443398 0.04726 255 0 255
2.7122 -0.451921 0.04726 255 0 255
2.72062 -0.462113 0.047432 255 0 255
2.71916 -0.470658 0.047432 255 0 255
2.71767 -0.479198 0.047432 255 0 255
2.71615 -0.487734 0.047432 255 0 255
2.70477 -0.494466 0.04726 255 0 255
2.67371 -0.497474 0.046744 255 0 255
-0.306707 -0.038637 -0.082693 0 255 255
-0.316415 -0.038851 -0.085277 0 255 255
-0.297345 -0.035614 -0.080108 0 255 255
-0.297456 -0.03468 -0.080108 0 255 255
-0.307162 -0.034834 -0.082693 0 255 255
-0.307671 -0.030005 -0.082693 0 255 255
-0.346235 -0.032668 -0.093029 0 255 255
-0.336715 -0.030703 -0.090445 0 255 255
-0.289528 -0.012793 -0.077524 0 255 255
-0.279914 -0.011487 -0.07494 0 255 255
-0.270296 -0.010242 -0.072356 0 255 255
-0.279981 -0.009728 -0.07494 0 255 255
-0.28006 -0.007089 -0.07494 0 255 255
-0.260765 -0.005781 -0.069772 0 255 255
-0.260782 -0.004962 -0.069772 0 255 255
-0.260796 -0.004142 -0.069772 0 255 255
-0.260808 -0.003323 -0.069772 0 255 255
-0.241497 -0.002318 -0.064604 0 255 255
-0.260824 -0.001684 -0.069772 0 255 255
-0.260828 -0.000865 -0.069772 0 255 255
-0.251169 -4.4e-05 -0.067188 0 255 255
-0.212527 0.000631 -0.056851 0 255 255
-0.222184 0.001318 -0.059435 0 255 255
-0.212519 0.001929 -0.056851 0 255 255
-0.212512 0.002596 -0.056851 0 255 255
-0.222162 0.003412 -0.059435 0 255 255
-0.22215 0.00411 -0.059435 0 255 255
-0.222136 0.004808 -0.059435 0 255 255
-0.22212 0.005506 -0.059435 0 255 255
-0.212445 0.005934 -0.056851 0 255 255
-0.222081 0.006902 -0.059435 0 255 255
-0.222058 0.007599 -0.059435 0 255 255
-0.222033 0.008297 -0.059435 0 255 255
-0.222006 0.008994 -0.059435 0 255 255
-0.221976 0.009692 -0.059435 0 255 255
-0.221945 0.010389 -0.059435 0 255 255
-0.212265 0.010567 -0.056851 0 255 255
-0.221877 0.011745 -0.059435 0 255 255
-0.250775 0.014064 -0.067188 0 255 255
-0.241086 0.014281 -0.064604 0 255 255
-0.250681 0.01564 -0.067188 0 255 255
-0.250631 0.016427 -0.067188 0 255 255
-0.269854 0.018539 -0.072356 0 255 255
-0.279429 0.020079 -0.07494 0 255 255
-0.288998 0.021679 -0.077524 0 255 255
-0.279298 0.021834 -0.07494 0 255 255
-0.279228 0.022711 -0.07494 0 255 255
-0.298407 0.025215 -0.080108 0 255 255
-0.298326 0.026153 -0.080108 0 255 255
-0.298243 0.02709 -0.080108 0 255 255
-0.298161 0.027975 -0.080108 0 255 255
-0.307687 0.029844 -0.082693 0 255 255
-0.27875 0.02797 -0.07494 0 255 255
-0.269052 0.027851 -0.072356 0 255 255
-0.28818 0.030696 -0.077524 0 255 255
-0.268877 0.029494 -0.072356 0 255 255
-0.287981 0.032506 -0.077524 0 255 255
-0.25909 0.030069 -0.069772 0 255 255
-0.278179 0.033171 -0.07494 0 255 255
-0.30684 0.037567 -0.082693 0 255 255
-0.26838 0.033714 -0.072356 0 255 255
-0.277854 0.035791 -0.07494 0 255 255
-0.287318 0.037928 -0.077524 0 255 255
-0.287197 0.038831 -0.077524 0 255 255
-0.29665 0.041005 -0.080108 0 255 255
-0.267824 0.037879 -0.072356 0 255 255
-0.286826 0.041486 -0.077524 0 255 255
-0.305807 0.045212 -0.082693 0 255 255
-0.257903 0.038958 -0.069772 0 255 255
-0.248232 0.038295 -0.067188 0 255 255
-0.314752 0.050584 -0.085277 0 255 255
-0.285993 0.046884 -0.077524 0 255 255
-0.266788 0.044597 -0.072356 0 255 255
-0.285701 0.048631 -0.077524 0 255 255
-0.26651 0.046226 -0.072356 0 255 255
-0.256851 0.045382 -0.069772 0 255 255
-0.256707 0.046189 -0.069772 0 255 255
-0.266063 0.048736 -0.072356 0 255 255
-0.256412 0.047801 -0.069772 0 255 255
-0.25626 0.048606 -0.069772 0 255 255
-0.22765 0.043921 -0.062019 0 255 255
-0.246479 0.048312 -0.067188 0 255 255
-0.246326 0.049087 -0.067188 0 255 255
-0.236702 0.047943 -0.064604 0 255 255
-0.246012 0.050633 -0.067188 0 255 255
-0.264764 0.05536 -0.072356 0 255 255
-0.283488 0.060205 -0.077524 0 255 255
-0.29274 0.063132 -0.080108 0 255 255
-0.283104 0.061986 -0.077524 0 255 255
-0.264047 0.058683 -0.072356 0 255 255
-0.263862 0.059512 -0.072356 0 255 255
-0.254267 0.058141 -0.069772 0 255 255
-0.244672 0.056757 -0.067188 0 255 255
-0.244493 0.057525 -0.067188 0 255 255
-0.244311 0.058293 -0.067188 0 255 255
-0.197179 0.047703 -0.054267 0 255 255
-0.20641 0.050623 -0.056851 0 255 255
-0.20625 0.051271 -0.056851 0 255 255
-0.215456 0.054279 -0.059435 0 255 255
-0.215284 0.054955 -0.059435 0 255 255
-0.224463 0.05805 -0.062019 0 255 255
-0.214945 0.056269 -0.059435 0 255 255
-0.214767 0.056944 -0.059435 0 255 255
-0.205257 0.055114 -0.056851 0 255 255
-0.205083 0.055758 -0.056851 0 255 255
-0.214221 0.058966 -0.059435 0 255 255
-0.214034 0.059639 -0.059435 0 255 255
-0.223144 0.062933 -0.062019 0 255 255
-0.241523 0.068936 -0.067188 0 255 255
-0.250587 0.072375 -0.069772 0 255 255
-0.213268 0.062324 -0.059435 0 255 255
-0.222335 0.065732 -0.062019 0 255 255
-0.231383 0.069198 -0.064604 0 255 255
-0.268151 0.081113 -0.07494 0 255 255
-0.304845 0.093259 -0.085277 0 255 255
-0.304567 0.094163 -0.085277 0 255 255
-0.30427 0.095119 -0.085277 0 255 255
-0.30397 0.096075 -0.085277 0 255 255
-0.32207 0.10291 -0.090445 0 255 255
-0.330938 0.10689 -0.093029 0 255 255
-0.376518 0.122919 -0.10595 0 255 255
-0.385303 0.127129 -0.108534 0 255 255
-0.412395 0.137505 -0.116286 0 255 255
-0.411961 0.1388 -0.116286 0 255 255
-0.411523 0.140094 -0.116286 0 255 255
-0.420241 0.144455 -0.118871 0 255 255
-0.419785 0.145774 -0.118871 0 255 255
-0.428441 0.15029 -0.121455 0 255 255
-0.418861 0.148409 -0.118871 0 255 255
-0.427488 0.152979 -0.121455 0 255 255
-0.445176 0.160888 -0.126623 0 255 255
-0.435593 0.158974 -0.124039 0 255 255
-0.435092 0.160341 -0.124039 0 255 255
-0.443669 0.164999 -0.126623 0 255 255
-0.434104 0.162996 -0.124039 0 255 255
-0.442623 0.167783 -0.126623 0 255 255
-0.433072 0.16572 -0.124039 0 255 255
-0.44156 0.170561 -0.126623 0 255 255
-0.450023 0.175457 -0.129207 0 255 255
-0.44048 0.173332 -0.126623 0 255 255
-0.430955 0.171149 -0.124039 0 255 255
-0.439413 0.17602 -0.126623 0 255 255
-0.438827 0.177476 -0.126623 0 255 255
-0.447211 0.182504 -0.129207 0 255 255
-0.437703 0.180229 -0.126623 0 255 255
-0.446088 0.185232 -0.129207 0 255 255
-0.445504 0.186632 -0.129207 0 255 255
-0.436017 0.18427 -0.126623 0 255 255
-0.435436 0.185639 -0.126623 0 255 255
-0.434851 0.187007 -0.126623 0 255 255
-0.443124 0.192216 -0.129207 0 255 255
-0.424817 0.185863 -0.124039 0 255 255
-0.424231 0.187196 -0.124039 0 255 255
-0.423674 0.188454 -0.124039 0 255 255
-0.431893 0.193738 -0.126623 0 255 255
-0.422481 0.191113 -0.124039 0 255 255
-0.413089 0.18843 -0.121455 0 255 255
-0.421272 0.193763 -0.124039 0 255 255
-0.420661 0.195086 -0.124039 0 255 255
-0.411295 0.192315 -0.121455 0 255 255
-0.419427 0.197725 -0.124039 0 255 255
-0.410113 0.194824 -0.121455 0 255 255
-0.409499 0.196111 -0.121455 0 255 255
-0.400181 0.193197 -0.118871 0 255 255
-0.399572 0.194453 -0.118871 0 255 255
-0.390286 0.191453 -0.116286 0 255 255
-0.407002 0.201241 -0.121455 0 255 255
-0.389076 0.193901 -0.116286 0 255 255
-0.397097 0.199459 -0.118871 0 255 255
-0.396503 0.200636 -0.118871 0 255 255
-0.395871 0.20188 -0.118871 0 255 255
-0.386643 0.198708 -0.116286 0 255 255
-0.386017 0.199921 -0.116286 0 255 255
-0.376823 0.196663 -0.113702 0 255 255
-0.393303 0.206839 -0.118871 0 255 255
-0.392651 0.208074 -0.118871 0 255 255
-0.383474 0.204756 -0.116286 0 255 255
-0.382865 0.205893 -0.116286 0 255 255
-0.382216 0.207095 -0.116286 0 255 255
-0.381564 0.208295 -0.116286 0 255 255
-0.380907 0.209492 -0.116286 0 255 255
-0.380247 0.210688 -0.116286 0 255 255
-0.388019 0.21659 -0.118871 0 255 255
-0.378916 0.213073 -0.116286 0 255 255
-0.369839 0.209501 -0.113702 0 255 255
-0.37757 0.215449 -0.116286 0 255 255
-0.385266 0.221449 -0.118871 0 255 255
-0.376209 0.217818 -0.116286 0 255 255
-0.375523 0.218998 -0.116286 0 255 255
-0.383202 0.225003 -0.118871 0 255 255
-0.390808 0.231123 -0.121455 0 255 255
-0.373481 0.222463 -0.116286 0 255 255
-0.37278 0.223635 -0.116286 0 255 255
-0.372076 0.224805 -0.116286 0 255 255
-0.387873 0.236016 -0.121455 0 255 255
-0.387129 0.237233 -0.121455 0 255 255
-0.386382 0.238448 -0.121455 0 255 255
-0.385673 0.239594 -0.121455 0 255 255
-0.393108 0.245928 -0.124039 0 255 255
-0.392334 0.247161 -0.124039 0 255 255
-0.391555 0.248393 -0.124039 0 255 255
-0.398914 0.254822 -0.126623 0 255 255
-0.406236 0.2613 -0.129207 0 255 255
-0.39735 0.257254 -0.126623 0 255 255
-0.412725 0.269052 -0.131791 0 255 255
-0.403802 0.265046 -0.129207 0 255 255
-0.411026 0.27164 -0.131791 0 255 255
-0.410171 0.27293 -0.131791 0 255 255
-0.409312 0.274217 -0.131791 0 255 255
-0.408448 0.275502 -0.131791 0 255 255
-0.407581 0.276783 -0.131791 0 255 255
-0.398782 0.272541 -0.129207 0 255 255
-0.413841 0.284744 -0.134375 0 255 255
-0.428827 0.297044 -0.139544 0 255 255
-0.451663 0.314967 -0.147296 0 255 255
-0.442765 0.310834 -0.144712 0 255 255
-0.449675 0.317799 -0.147296 0 255 255
-0.456546 0.32481 -0.14988 0 255 255
-0.463377 0.331868 -0.152465 0 255 255
-0.46239 0.333241 -0.152465 0 255 255
-0.461341 0.334692 -0.152465 0 255 255
-0.452486 0.330443 -0.14988 0 255 255
-0.459229 0.337584 -0.152465 0 255 255
-0.458166 0.339025 -0.152465 0 255 255
-0.441604 0.328922 -0.147296 0 255 255
-0.432896 0.324437 -0.144712 0 255 255
-0.439587 0.331613 -0.147296 0 255 255
-0.415461 0.315467 -0.139544 0 255 255
-0.429819 0.328503 -0.144712 0 255 255
-0.428785 0.329851 -0.144712 0 255 255
-0.435385 0.337111 -0.147296 0 255 255
-0.403845 0.314724 -0.13696 0 255 255
-0.402854 0.315992 -0.13696 0 255 255
-0.401915 0.317185 -0.13696 0 255 255
-0.393352 0.312438 -0.134375 0 255 255
-0.392368 0.313672 -0.134375 0 255 255
-0.391381 0.314903 -0.134375 0 255 255
-0.39039 0.316131 -0.134375 0 255 255
-0.389395 0.317356 -0.134375 0 255 255
-0.388396 0.318578 -0.134375 0 255 255
-0.387393 0.319797 -0.134375 0 255 255
-0.393874 0.327117 -0.13696 0 255 255
-0.385432 0.322157 -0.134375 0 255 255
-0.406596 0.342022 -0.142128 0 255 255
-0.398147 0.337056 -0.139544 0 255 255
-0.411793 0.350835 -0.144712 0 255 255
-0.403355 0.345839 -0.142128 0 255 255
-0.40958 0.353415 -0.144712 0 255 255
-0.401174 0.348366 -0.142128 0 255 255
-0.400138 0.349555 -0.142128 0 255 255
-0.406293 0.357189 -0.144712 0 255 255
-0.405169 0.358464 -0.144712 0 255 255
-0.411256 0.366159 -0.147296 0 255 255
-0.424494 0.380342 -0.152465 0 255 255
-0.430471 0.388142 -0.155049 0 255 255
-0.422162 0.382928 -0.152465 0 255 255
-0.413822 0.377739 -0.14988 0 255 255
-0.412634 0.379037 -0.14988 0 255 255
-0.411441 0.380332 -0.14988 0 255 255
-0.396098 0.368463 -0.144712 0 255 255
-0.373781 0.3499 -0.13696 0 255 255
-0.386807 0.364253 -0.142128 0 255 255
-0.38566 0.365467 -0.142128 0 255 255
-0.38451 0.366676 -0.142128 0 255 255
-0.383356 0.367883 -0.142128 0 255 255
-0.389148 0.375796 -0.144712 0 255 255
-0.394893 0.383749 -0.147296 0 255 255
-0.407499 0.398496 -0.152465 0 255 255
-0.39936 0.392998 -0.14988 0 255 255
-0.405057 0.400978 -0.152465 0 255 255
-0.41064 0.409066 -0.155049 0 255 255
-0.366374 0.411065 -0.147296 0 255 255
-0.37789 0.426677 -0.152465 0 255 255
-0.357402 0.406106 -0.144712 0 255 255
-0.349765 0.399955 -0.142128 0 255 255
-0.361252 0.415573 -0.147296 0 255 255
-0.35363 0.409395 -0.144712 0 255 255
-0.364926 0.425165 -0.14988 0 255 255
-0.351051 0.411609 -0.144712 0 255 255
-0.356075 0.420017 -0.147296 0 255 255
-0.354753 0.421134 -0.147296 0 255 255
-0.347228 0.414839 -0.144712 0 255 255
-0.3521 0.423355 -0.147296 0 255 255
-0.350769 0.424459 -0.147296 0 255 255
-0.361694 0.44049 -0.152465 0 255 255
-0.354202 0.43414 -0.14988 0 255 255
-0.358919 0.442754 -0.152465 0 255 255
-0.357604 0.443817 -0.152465 0 255 255
-0.350171 0.437397 -0.14988 0 255 255
-0.336767 0.423375 -0.144712 0 255 255
-0.335436 0.424431 -0.144712 0 255 255
-0.328207 0.417827 -0.142128 0 255 255
-0.32095 0.411241 -0.139544 0 255 255
-0.319656 0.412247 -0.139544 0 255 255
-0.312464 0.405596 -0.13696 0 255 255
-0.31706 0.414247 -0.139544 0 255 255
-0.315757 0.415241 -0.139544 0 255 255
-0.326097 0.431647 -0.144712 0 255 255
-0.336337 0.448122 -0.14988 0 255 255
-0.32923 0.441374 -0.147296 0 255 255
-0.320723 0.435655 -0.144712 0 255 255
-0.330758 0.452255 -0.14988 0 255 255
-0.329336 0.453292 -0.14988 0 255 255
-0.32791 0.454324 -0.14988 0 255 255
-0.315223 0.439651 -0.144712 0 255 255
-0.302632 0.424902 -0.139544 0 255 255
-0.290208 0.410027 -0.134375 0 255 255
-0.294475 0.41884 -0.13696 0 255 255
-0.282095 0.403923 -0.131791 0 255 255
-0.294645 0.430479 -0.139544 0 255 255
-0.298799 0.439339 -0.142128 0 255 255
-0.308232 0.456286 -0.147296 0 255 255
-0.322944 0.481318 -0.155049 0 255 255
-0.316074 0.474291 -0.152465 0 255 255
-0.319998 0.483281 -0.155049 0 255 255
-1.60166 4.09325 -1.17579 0 255 255
-1.57831 4.07124 -1.16803 0 255 255
-1.57662 4.10296 -1.17579 0 255 255
-1.56372 4.10789 -1.17579 0 255 255
-1.55081 4.11279 -1.17579 0 255 255
-1.53788 4.11764 -1.17579 0 255 255
-1.52494 4.12245 -1.17579 0 255 255
-1.5153 4.13629 -1.17837 0 255 255
-1.5023 4.14103 -1.17837 0 255 255
-1.48602 4.13664 -1.17579 0 255 255
-1.47698 4.15013 -1.17837 0 255 255
-1.46714 4.16386 -1.18095 0 255 255
-1.4636 4.19581 -1.18871 0 255 255
-1.44411 4.18213 -1.18354 0 255 255
-1.43409 4.19579 -1.18612 0 255 255
-1.42089 4.20027 -1.18612 0 255 255
-1.4115 4.21363 -1.18871 0 255 255
-1.39521 4.20887 -1.18612 0 255 255
-1.38499 4.22241 -1.18871 0 255 255
-1.3747 4.23593 -1.19129 0 255 255
-1.36213 4.23999 -1.19129 0 255 255
-1.3488 4.24425 -1.19129 0 255 255
-1.33836 4.25768 -1.19387 0 255 255
-1.32211 4.25264 -1.19129 0 255 255
-1.30874 4.25677 -1.19129 0 255 255
-1.28974 4.24238 -1.18612 0 255 255
-1.28828 4.28319 -1.19646 0 255 255
-1.27757 4.29648 -1.19904 0 255 255
-1.25862 4.28193 -1.19387 0 255 255
-1.25324 4.31369 -1.20163 0 255 255
-1.23435 4.29904 -1.19646 0 255 255
-1.21821 4.2936 -1.19387 0 255 255
-1.21254 4.32531 -1.20163 0 255 255
-1.19636 4.31979 -1.19904 0 255 255
-1.18279 4.32353 -1.19904 0 255 255
-1.17927 4.36453 -1.20938 0 255 255
-1.15884 4.34001 -1.20163 0 255 255
-1.1452 4.34363 -1.20163 0 255 255
-1.13399 4.35655 -1.20421 0 255 255
-1.1227 4.36945 -1.20679 0 255 255
-1.11134 4.38232 -1.20938 0 255 255
-1.09288 4.36705 -1.20421 0 255 255
-1.08455 4.38903 -1.20938 0 255 255
-1.07075 4.39241 -1.20938 0 255 255
-1.05695 4.39575 -1.20938 0 255 255
-1.04313 4.39905 -1.20938 0 255 255
-1.03228 4.41153 -1.21196 0 255 255
-1.02059 4.42417 -1.21455 0 255 255
-1.00454 4.41793 -1.21196 0 255 255
-0.990657 4.42107 -1.21196 0 255 255
-0.978844 4.43359 -1.21455 0 255 255
-0.964912 4.43665 -1.21455 0 255 255
-0.95097 4.43965 -1.21455 0 255 255
-0.937016 4.44262 -1.21455 0 255 255
-0.925019 4.455 -1.21713 0 255 255
-0.91102 4.45788 -1.21713 0 255 255
-0.897788 4.46057 -1.21713 0 255 255
-0.883771 4.46337 -1.21713 0 255 255
-0.87159 4.4756 -1.21972 0 255 255
-0.857526 4.47832 -1.21972 0 255 255
-0.841666 4.4715 -1.21713 0 255 255
-0.82937 4.48362 -1.21972 0 255 255
-0.816064 4.48606 -1.21972 0 255 255
-0.803665 4.49811 -1.2223 0 255 255
-0.788645 4.49096 -1.21972 0 255 255
-0.774533 4.49342 -1.21972 0 255 255
-0.762023 4.50535 -1.2223 0 255 255
-0.749447 4.51725 -1.22488 0 255 255
-0.732148 4.50052 -1.21972 0 255 255
-0.718007 4.50279 -1.21972 0 255 255
-0.70535 4.51457 -1.2223 0 255 255
-0.691162 4.51677 -1.2223 0 255 255
-0.676325 4.50924 -1.21972 0 255 255
-0.663557 4.5209 -1.2223 0 255 255
-0.649352 4.52297 -1.2223 0 255 255
-0.633798 4.51542 -1.21972 0 255 255
-0.619608 4.51739 -1.21972 0 255 255
-0.606696 4.52888 -1.2223 0 255 255
-0.594509 4.54024 -1.22488 0 255 255
-0.580243 4.54209 -1.22488 0 255 255
-0.565972 4.54389 -1.22488 0 255 255
-0.550529 4.53606 -1.2223 0 255 255
-0.538544 4.55695 -1.22747 0 255 255
-0.524224 4.55862 -1.22747 0 255 255
-0.509622 4.55055 -1.22488 0 255 255
-0.495324 4.55213 -1.22488 0 255 255
-0.48102 4.55367 -1.22488 0 255 255
-0.466712 4.55515 -1.22488 0 255 255
-0.453194 4.55652 -1.22488 0 255 255
-0.437026 4.53869 -1.21972 0 255 255
-0.423661 4.54966 -1.2223 0 255 255
-0.41023 4.56059 -1.22488 0 255 255
-0.395902 4.56185 -1.22488 0 255 255
-0.381567 4.56308 -1.22488 0 255 255
-0.368008 4.57388 -1.22747 0 255 255
-0.355124 4.59428 -1.23264 0 255 255
-0.338545 4.56647 -1.22488 0 255 255
-0.324198 4.56751 -1.22488 0 255 255
-0.311301 4.57809 -1.22747 0 255 255
-0.298168 4.59833 -1.23264 0 255 255
-0.283124 4.5896 -1.23005 0 255 255
-0.268703 4.59047 -1.23005 0 255 255
-0.255618 4.60089 -1.23264 0 255 255
-0.24167 4.61131 -1.23522 0 255 255
-0.227658 4.6217 -1.23781 0 255 255
-0.214026 4.64169 -1.24297 0 255 255
-0.199441 4.64234 -1.24297 0 255 255
-0.185625 4.66225 -1.24814 0 255 255
-0.171436 4.65313 -1.24556 0 255 255
-0.156818 4.65364 -1.24556 0 255 255
-0.142196 4.65411 -1.24556 0 255 255
-0.127838 4.66419 -1.24814 0 255 255
-0.112951 4.65491 -1.24556 0 255 255
-0.098327 4.65525 -1.24556 0 255 255
-0.083874 4.66519 -1.24814 0 255 255
-0.069362 4.67509 -1.25073 0 255 255
-0.055374 4.66562 -1.24814 0 255 255
-0.040633 4.65611 -1.24556 0 255 255
-0.026114 4.67553 -1.25073 0 255 255
-0.011424 4.67559 -1.25073 0 255 255
0.003257 4.66594 -1.24814 0 255 255
0.017917 4.66591 -1.24814 0 255 255
0.03176 4.66584 -1.24814 0 255 255
0.046513 4.67537 -1.25073 0 255 255
0.061203 4.6752 -1.25073 0 255 255
0.075732 4.66533 -1.24814 0 255 255
0.089946 4.6844 -1.25331 0 255 255
0.10423 4.66478 -1.24814 0 255 255
0.118883 4.66443 -1.24814 0 255 255
0.133261 4.65438 -1.24556 0 255 255
0.148802 4.6829 -1.25331 0 255 255
0.163178 4.67276 -1.25073 0 255 255
0.17704 4.67225 -1.25073 0 255 255
0.191717 4.67167 -1.25073 0 255 255
0.20682 4.6807 -1.25331 0 255 255
0.221066 4.67038 -1.25073 0 255 255
0.235252 4.66001 -1.24814 0 255 255
0.250405 4.66889 -1.25073 0 255 255
0.26562 4.67773 -1.25331 0 255 255
0.280316 4.67687 -1.25331 0 255 255
0.293584 4.66638 -1.25073 0 255 255
0.308244 4.66543 -1.25073 0 255 255
0.323563 4.67408 -1.25331 0 255 255
0.338944 4.68267 -1.25589 0 255 255
0.352927 4.67195 -1.25331 0 255 255
0.366844 4.66119 -1.25073 0 255 255
0.381458 4.66971 -1.25331 0 255 255
0.395309 4.65886 -1.25073 0 255 255
0.409944 4.6576 -1.25073 0 255 255
0.424576 4.65629 -1.25073 0 255 255
0.439295 4.66463 -1.25331 0 255 255
0.453946 4.66322 -1.25331 0 255 255
0.467626 4.65216 -1.25073 0 255 255
0.482241 4.65067 -1.25073 0 255 255
0.49685 4.64913 -1.25073 0 255 255
0.514623 4.67635 -1.25848 0 255 255
0.527137 4.65552 -1.25331 0 255 255
0.542876 4.66343 -1.25589 0 255 255
0.556711 4.6618 -1.25589 0 255 255
0.571356 4.66003 -1.25589 0 255 255
0.584786 4.64863 -1.25331 0 255 255
0.59815 4.63719 -1.25073 0 255 255
0.613981 4.64486 -1.25331 0 255 255
0.628571 4.64291 -1.25331 0 255 255
0.641021 4.63145 -1.25073 0 255 255
0.655567 4.62942 -1.25073 0 255 255
0.670107 4.62734 -1.25073 0 255 255
0.687469 4.64432 -1.25589 0 255 255
0.700613 4.63259 -1.25331 0 255 255
0.710741 4.60172 -1.24556 0 255 255
0.727396 4.61868 -1.25073 0 255 255
0.743434 4.62591 -1.25331 0 255 255
0.757963 4.62355 -1.25331 0 255 255
0.772485 4.62114 -1.25331 0 255 255
0.787001 4.61869 -1.25331 0 255 255
0.799853 4.60668 -1.25073 0 255 255
0.816003 4.61366 -1.25331 0 255 255
0.827068 4.59206 -1.24814 0 255 255
0.842431 4.59909 -1.25073 0 255 255
0.856877 4.59642 -1.25073 0 255 255
0.871309 4.5937 -1.25073 0 255 255
0.883908 4.58146 -1.24814 0 255 255
0.897497 4.57881 -1.24814 0 255 255
0.911878 4.57597 -1.24814 0 255 255
0.928169 4.58255 -1.25073 0 255 255
0.94061 4.57015 -1.24814 0 255 255
0.952987 4.55772 -1.24556 0 255 255
0.969307 4.56415 -1.24814 0 255 255
0.980811 4.55181 -1.24556 0 255 255
0.99717 4.55815 -1.24814 0 255 255
1.00939 4.54556 -1.24556 0 255 255
1.02579 4.55179 -1.24814 0 255 255
1.03714 4.53931 -1.24556 0 255 255
1.0514 4.53603 -1.24556 0 255 255
1.06564 4.5327 -1.24556 0 255 255
1.08211 4.53873 -1.24814 0 255 255
1.0941 4.52592 -1.24556 0 255 255
1.11061 4.53184 -1.24814 0 255 255
1.1194 4.50977 -1.24297 0 255 255
1.13592 4.5156 -1.24556 0 255 255
1.14771 4.50265 -1.24297 0 255 255
1.16185 4.49902 -1.24297 0 255 255
1.17598 4.49535 -1.24297 0 255 255
1.19257 4.50097 -1.24556 0 255 255
1.20842 4.50675 -1.24814 0 255 255
1.22004 4.49361 -1.24556 0 255 255
1.23159 4.48043 -1.24297 0 255 255
1.24825 4.48585 -1.24556 0 255 255
1.25894 4.47283 -1.24297 0 255 255
1.27298 4.46885 -1.24297 0 255 255
1.28702 4.46483 -1.24297 0 255 255
1.30374 4.47004 -1.24556 0 255 255
1.31778 4.46592 -1.24556 0 255 255
1.32904 4.4525 -1.24297 0 255 255
1.34225 4.44854 -1.24297 0 255 255
1.67436 4.30339 -1.23522 0 255 255
1.68787 4.29811 -1.23522 0 255 255
1.69425 4.27482 -1.23005 0 255 255
1.71484 4.28742 -1.23522 0 255 255
1.7283 4.28201 -1.23522 0 255 255
1.74464 4.28581 -1.23781 0 255 255
1.74709 4.2535 -1.23005 0 255 255
1.76414 4.25691 -1.23264 0 255 255
1.77751 4.25135 -1.23264 0 255 255
1.78334 4.22794 -1.22747 0 255 255
1.80418 4.2401 -1.23264 0 255 255
1.81295 4.22585 -1.23005 0 255 255
1.83005 4.229 -1.23264 0 255 255
1.84333 4.22323 -1.23264 0 255 255
1.8488 4.19973 -1.22747 0 255 255
1.86591 4.20273 -1.23005 0 255 255
1.88699 4.21448 -1.23522 0 255 255
1.89155 4.19126 -1.23005 0 255 255
1.8967 4.16771 -1.22488 0 255 255
1.91381 4.17051 -1.22747 0 255 255
1.92691 4.16447 -1.22747 0 255 255
1.93998 4.1584 -1.22747 0 255 255
1.94892 4.14354 -1.22488 0 255 255
1.96607 4.14613 -1.22747 0 255 255
1.98742 4.15736 -1.23264 0 255 255
1.98789 4.12499 -1.22488 0 255 255
1.99662 4.11004 -1.2223 0 255 255
2.01305 4.11277 -1.22488 0 255 255
2.02168 4.09776 -1.2223 0 255 255
2.03455 4.09139 -1.2223 0 255 255
2.04739 4.08498 -1.2223 0 255 255
2.0515 4.06128 -1.21713 0 255 255
2.07301 4.07204 -1.2223 0 255 255
2.07627 4.04868 -1.21713 0 255 255
2.09785 4.0593 -1.2223 0 255 255
2.11059 4.05269 -1.2223 0 255 255
2.11883 4.03748 -1.21972 0 255 255
2.1308 4.03118 -1.21972 0 255 255
2.13891 4.01594 -1.21713 0 255 255
2.15608 4.01771 -1.21972 0 255 255
2.17329 4.01941 -1.2223 0 255 255
2.17204 3.98712 -1.21455 0 255 255
2.18456 3.98027 -1.21455 0 255 255
2.20103 3.98223 -1.21713 0 255 255
2.21353 3.9753 -1.21713 0 255 255
2.22601 3.96832 -1.21713 0 255 255
2.23846 3.96131 -1.21713 0 255 255
2.2509 3.95426 -1.21713 0 255 255
2.26331 3.94717 -1.21713 0 255 255
2.2757 3.94004 -1.21713 0 255 255
2.27835 3.91617 -1.21196 0 255 255
2.29064 3.90899 -1.21196 0 255 255
2.30782 3.91009 -1.21455 0 255 255
2.31941 3.90323 -1.21455 0 255 255
2.3267 3.88763 -1.21196 0 255 255
2.32826 3.86417 -1.20679 0 255 255
2.3454 3.86509 -1.20938 0 255 255
2.3582 3.85729 -1.20938 0 255 255
2.36524 3.84164 -1.20679 0 255 255
2.37663 3.8346 -1.20679 0 255 255
2.39378 3.83531 -1.20938 0 255 255
2.40068 3.8196 -1.20679 0 255 255
2.41266 3.81204 -1.20679 0 255 255
2.42463 3.80444 -1.20679 0 255 255
2.43135 3.78867 -1.20421 0 255 255
2.44258 3.78144 -1.20421 0 255 255
2.44918 3.76565 -1.20163 0 255 255
2.461 3.75794 -1.20163 0 255 255
2.47811 3.75825 -1.20421 0 255 255
2.48456 3.7424 -1.20163 0 255 255
2.49094 3.72654 -1.19904 0 255 255
2.4912 3.7031 -1.19387 0 255 255
2.51907 3.71926 -1.20163 0 255 255
2.5253 3.70334 -1.19904 0 255 255
2.52599 3.67946 -1.19387 0 255 255
2.54303 3.67946 -1.19646 0 255 255
2.55457 3.67145 -1.19646 0 255 255
2.55501 3.64758 -1.19129 0 255 255
2.56089 3.63164 -1.18871 0 255 255
2.57166 3.62403 -1.18871 0 255 255
2.57741 3.60807 -1.18612 0 255 255
2.60065 3.61519 -1.19129 0 255 255
2.60066 3.59135 -1.18612 0 255 255
2.62268 3.59923 -1.19129 0 255 255
2.62826 3.58318 -1.18871 0 255 255
2.63888 3.57537 -1.18871 0 255 255
2.63282 3.5438 -1.18095 0 255 255
2.65551 3.55098 -1.18612 0 255 255
2.66665 3.54262 -1.18612 0 255 255
2.67777 3.53423 -1.18612 0 255 255
2.67714 3.51044 -1.18095 0 255 255
2.68816 3.50201 -1.18095 0 255 255
2.71686 3.51648 -1.18871 0 255 255
2.7095 3.48552 -1.18095 0 255 255
2.70623 3.41441 -1.16545 0 255 255
2.70489 3.39078 -1.16028 0 255 255
2.70948 3.37474 -1.1577 0 255 255
2.72007 3.36621 -1.1577 0 255 255
2.73063 3.35765 -1.1577 0 255 255
2.73505 3.34157 -1.15511 0 255 255
2.73939 3.32551 -1.15253 0 255 255
2.74925 3.31737 -1.15253 0 255 255
2.75965 3.30871 -1.15253 0 255 255
2.77003 3.30003 -1.15253 0 255 255
2.77415 3.28393 -1.14994 0 255 255
2.79071 3.28256 -1.15253 0 255 255
2.80101 3.27378 -1.15253 0 255 255
2.80441 3.25813 -1.14994 0 255 255
2.80831 3.242 -1.14736 0 255 255
1.98055 2.27195 -0.806253 0 255 255
1.95583 2.22941 -0.793332 0 255 255
2.87393 3.23584 -1.1577 0 255 255
2.90983 3.25561 -1.16803 0 255 255
2.90712 3.23209 -1.16287 0 255 255
2.91726 3.22294 -1.16287 0 255 255
2.92087 3.20662 -1.16028 0 255 255
2.93745 3.20455 -1.16287 0 255 255
2.94096 3.1882 -1.16028 0 255 255
2.95753 3.18602 -1.16287 0 255 255
2.96753 3.17672 -1.16287 0 255 255
2.95709 3.14678 -1.15511 0 255 255
2.96696 3.13747 -1.15511 0 255 255
2.97014 3.12114 -1.15253 0 255 255
2.97994 3.11179 -1.15253 0 255 255
2.9964 3.10937 -1.15511 0 255 255
3.01288 3.10688 -1.1577 0 255 255
3.00913 3.08357 -1.15253 0 255 255
2.9985 3.05343 -1.14478 0 255 255
3.02845 3.0646 -1.15253 0 255 255
3.03806 3.05507 -1.15253 0 255 255
3.04711 3.04605 -1.15253 0 255 255
3.04981 3.02965 -1.14994 0 255 255
3.04556 3.00648 -1.14478 0 255 255
3.055 2.9969 -1.14478 0 255 255
3.06439 2.98729 -1.14478 0 255 255
3.05989 2.9642 -1.13961 0 255 255
3.07614 2.96127 -1.14219 0 255 255
3.08543 2.9516 -1.14219 0 255 255
3.08718 2.93577 -1.13961 0 255 255
3.09638 2.92606 -1.13961 0 255 255
3.10556 2.91632 -1.13961 0 255 255
3.11471 2.90654 -1.13961 0 255 255
3.13091 2.90331 -1.14219 0 255 255
3.1187 2.87382 -1.13444 0 255 255
3.14196 2.87706 -1.13961 0 255 255
3.13669 2.85417 -1.13444 0 255 255
3.15231 2.85133 -1.13702 0 255 255
3.16125 2.84142 -1.13702 0 255 255
3.17017 2.83147 -1.13702 0 255 255
3.17182 2.81508 -1.13444 0 255 255
3.18065 2.80511 -1.13444 0 255 255
3.18945 2.7951 -1.13444 0 255 255
3.19821 2.78507 -1.13444 0 255 255
3.19964 2.76868 -1.13186 0 255 255
3.20052 2.75288 -1.12927 0 255 255
3.20915 2.74281 -1.12927 0 255 255
3.20302 2.72021 -1.1241 0 255 255
3.21894 2.71636 -1.12669 0 255 255
3.22005 2.70003 -1.1241 0 255 255
3.20625 2.67135 -1.11635 0 255 255
3.18911 2.44532 -1.075 0 255 255
3.15835 2.40602 -1.06208 0 255 255
3.22712 2.39492 -1.075 0 255 255
3.24199 2.39107 -1.07759 0 255 255
3.26476 2.37634 -1.08017 0 255 255
3.29569 2.38305 -1.08792 0 255 255
3.29532 2.36705 -1.08534 0 255 255
3.27128 2.33424 -1.075 0 255 255
3.2786 2.32395 -1.075 0 255 255
3.29378 2.31921 -1.07759 0 255 255
3.30856 2.31496 -1.08017 0 255 255
3.32375 2.31007 -1.08276 0 255 255
3.33894 2.3051 -1.08534 0 255 255
3.34617 2.2946 -1.08534 0 255 255
3.35336 2.28408 -1.08534 0 255 255
3.34452 2.26271 -1.08017 0 255 255
3.35161 2.25219 -1.08017 0 255 255
3.3667 2.24701 -1.08276 0 255 255
3.37335 2.23701 -1.08276 0 255 255
3.38037 2.2264 -1.08276 0 255 255
3.38734 2.21577 -1.08276 0 255 255
3.39429 2.20512 -1.08276 0 255 255
3.4012 2.19444 -1.08276 0 255 255
3.40808 2.18375 -1.08276 0 255 255
3.41492 2.17303 -1.08276 0 255 255
3.42173 2.16229 -1.08276 0 255 255
3.42813 2.15213 -1.08276 0 255 255
3.43487 2.14135 -1.08276 0 255 255
3.43337 2.12546 -1.08017 0 255 255
3.45649 2.12478 -1.08534 0 255 255
3.46315 2.11391 -1.08534 0 255 255
3.46977 2.10302 -1.08534 0 255 255
3.476 2.09272 -1.08534 0 255 255
3.48255 2.08179 -1.08534 0 255 255
3.48908 2.07084 -1.08534 0 255 255
3.49556 2.05987 -1.08534 0 255 255
3.50202 2.04888 -1.08534 0 255 255
3.50844 2.03786 -1.08534 0 255 255
3.51483 2.02683 -1.08534 0 255 255
3.52117 2.01578 -1.08534 0 255 255
3.52749 2.00471 -1.08534 0 255 255
3.53377 1.99362 -1.08534 0 255 255
3.54844 1.98723 -1.08792 0 255 255
3.55467 1.97607 -1.08792 0 255 255
3.5524 1.96022 -1.08534 0 255 255
3.55854 1.94905 -1.08534 0 255 255
3.57314 1.94248 -1.08792 0 255 255
3.57072 1.92666 -1.08534 0 255 255
3.58494 1.92061 -1.08792 0 255 255
3.59095 1.90934 -1.08792 0 255 255
3.59693 1.89805 -1.08792 0 255 255
3.60288 1.88674 -1.08792 0 255 255
3.60021 1.87096 -1.08534 0 255 255
3.61466 1.86407 -1.08792 0 255 255
3.62877 1.85774 -1.09051 0 255 255
3.61737 1.83758 -1.08534 0 255 255
3.62312 1.8262 -1.08534 0 255 255
3.62884 1.81481 -1.08534 0 255 255
3.63453 1.8034 -1.08534 0 255 255
3.64017 1.79198 -1.08534 0 255 255
3.65446 1.78477 -1.08792 0 255 255
3.66005 1.77328 -1.08792 0 255 255
3.6569 1.75759 -1.08534 0 255 255
3.6624 1.74609 -1.08534 0 255 255
3.66757 1.73522 -1.08534 0 255 255
3.68175 1.72779 -1.08792 0 255 255
3.68716 1.71622 -1.08792 0 255 255
3.68376 1.70057 -1.08534 0 255 255
3.69787 1.69302 -1.08792 0 255 255
3.70317 1.68139 -1.08792 0 255 255
3.70843 1.66975 -1.08792 0 255 255
3.71366 1.65809 -1.08792 0 255 255
3.71856 1.64706 -1.08792 0 255 255
3.73256 1.63926 -1.09051 0 255 255
3.73769 1.62752 -1.09051 0 255 255
3.73392 1.61194 -1.08792 0 255 255
3.73897 1.6002 -1.08792 0 255 255
3.75287 1.59222 -1.09051 0 255 255
3.75785 1.58043 -1.09051 0 255 255
3.74496 1.56118 -1.08534 0 255 255
3.75878 1.5531 -1.08792 0 255 255
3.77258 1.54494 -1.09051 0 255 255
3.76846 1.52945 -1.08792 0 255 255
3.77325 1.5176 -1.08792 0 255 255
3.78671 1.50998 -1.09051 0 255 255
3.79169 1.49741 -1.09051 0 255 255
3.79638 1.48549 -1.09051 0 255 255
3.80103 1.47356 -1.09051 0 255 255
3.80538 1.46228 -1.09051 0 255 255
3.81899 1.45375 -1.09309 0 255 255
3.82353 1.44174 -1.09309 0 255 255
3.82805 1.42972 -1.09309 0 255 255
3.82346 1.41434 -1.09051 0 255 255
3.83695 1.40565 -1.09309 0 255 255
3.84135 1.39358 -1.09309 0 255 255
3.84571 1.38151 -1.09309 0 255 255
3.85003 1.36942 -1.09309 0 255 255
3.85431 1.35732 -1.09309 0 255 255
3.85856 1.3452 -1.09309 0 255 255
