ply
format ascii 1.0
element vertex 1324
property float x
property float y
property float z
property uchar red
property uchar green
property uchar blue
end_header
-0.36543 0.059514 0.08555 0 255 255
-0.35563 0.059065 0.083299 0 255 255
-0.355443 0.060182 0.083299 0 255 255
-0.355252 0.061299 0.083299 0 255 255
-0.364654 0.064101 0.08555 0 255 255
-0.35486 0.06353 0.083299 0 255 255
-0.35467 0.064582 0.083299 0 255 255
-0.364045 0.067472 0.08555 0 255 255
-0.363831 0.068615 0.08555 0 255 255
-0.363614 0.069758 0.08555 0 255 255
-0.363381 0.070963 0.08555 0 255 255
-0.353599 0.070207 0.083299 0 255 255
-0.362927 0.073245 0.08555 0 255 255
-0.353151 0.072427 0.083299 0 255 255
-0.352922 0.073536 0.083299 0 255 255
-0.371753 0.07868 0.087801 0 255 255
-0.361978 0.0778 0.08555 0 255 255
-0.361732 0.078937 0.08555 0 255 255
-0.35197 0.077965 0.083299 0 255 255
-0.351723 0.079071 0.083299 0 255 255
-0.341974 0.078008 0.081047 0 255 255
-0.360712 0.083476 0.08555 0 255 255
-0.341477 0.080156 0.081047 0 255 255
-0.341223 0.081228 0.081047 0 255 255
-0.359909 0.086872 0.08555 0 255 255
-0.340706 0.08337 0.081047 0 255 255
-0.340443 0.08444 0.081047 0 255 255
-0.349625 0.087885 0.083299 0 255 255
-0.339905 0.086578 0.081047 0 255 255
-0.3585 0.092514 0.08555 0 255 255
-0.358208 0.09364 0.08555 0 255 255
-0.348493 0.092271 0.083299 0 255 255
-0.357612 0.095889 0.08555 0 255 255
-0.347906 0.094459 0.083299 0 255 255
-0.338213 0.092969 0.081047 0 255 255
-0.356693 0.099255 0.08555 0 255 255
-0.337622 0.095092 0.081047 0 255 255
-0.346692 0.098823 0.083299 0 255 255
-0.355741 0.102612 0.08555 0 255 255
-0.336711 0.09827 0.081047 0 255 255
-0.336401 0.099327 0.081047 0 255 255
-0.326751 0.097595 0.078796 0 255 255
-0.363751 0.109892 0.087801 0 255 255
-0.344768 0.10534 0.083299 0 255 255
-0.335144 0.103488 0.081047 0 255 255
-0.353418 0.110348 0.08555 0 255 255
-0.35307 0.111458 0.08555 0 255 255
-0.352718 0.112567 0.08555 0 255 255
-0.352343 0.113736 0.08555 0 255 255
-0.333458 0.108798 0.081047 0 255 255
-0.342368 0.112896 0.083299 0 255 255
-0.332768 0.110891 0.081047 0 255 255
-0.350906 0.118093 0.08555 0 255 255
-0.341309 0.116058 0.083299 0 255 255
-0.350157 0.120295 0.08555 0 255 255
-0.340573 0.1182 0.083299 0 255 255
-0.331005 0.116046 0.081047 0 255 255
-0.349008 0.12359 0.08555 0 255 255
-0.339444 0.121405 0.083299 0 255 255
-0.339061 0.122471 0.083299 0 255 255
-0.329521 0.120197 0.081047 0 255 255
-0.338285 0.124599 0.083299 0 255 255
-0.356156 0.132453 0.087801 0 255 255
-0.337495 0.126722 0.083299 0 255 255
-0.355317 0.134688 0.087801 0 255 255
-0.363992 0.139286 0.090053 0 255 255
-0.354463 0.136918 0.087801 0 255 255
-0.344954 0.134492 0.08555 0 255 255
-0.34453 0.135575 0.08555 0 255 255
-0.362213 0.143849 0.090053 0 255 255
-0.334627 0.134112 0.083299 0 255 255
-0.361302 0.146122 0.090053 0 255 255
-0.342799 0.139894 0.08555 0 255 255
-0.333348 0.13726 0.083299 0 255 255
-0.341913 0.142045 0.08555 0 255 255
-0.350451 0.146884 0.087801 0 255 255
-0.33204 0.140396 0.083299 0 255 255
-0.331597 0.141438 0.083299 0 255 255
-0.349051 0.150181 0.087801 0 255 255
-0.330702 0.143519 0.083299 0 255 255
-0.348101 0.152371 0.087801 0 255 255
-0.338707 0.149529 0.08555 0 255 255
-0.338235 0.150592 0.08555 0 255 255
-0.355538 0.159636 0.090053 0 255 255
-0.337283 0.152714 0.08555 0 255 255
-0.327938 0.149727 0.083299 0 255 255
-0.336316 0.15483 0.08555 0 255 255
-0.326991 0.151784 0.083299 0 255 255
-0.352986 0.165201 0.090053 0 255 255
-0.326031 0.153836 0.083299 0 255 255
-0.334344 0.159044 0.08555 0 255 255
-0.316272 0.151668 0.081047 0 255 255
-0.34211 0.165383 0.087801 0 255 255
-0.341589 0.166457 0.087801 0 255 255
-0.341065 0.167529 0.087801 0 255 255
-0.349268 0.172923 0.090053 0 255 255
-0.340005 0.169669 0.087801 0 255 255
-0.330766 0.166358 0.08555 0 255 255
-0.330242 0.167396 0.08555 0 255 255
-0.347068 0.177298 0.090053 0 255 255
-0.337846 0.173928 0.087801 0 255 255
-0.345947 0.179475 0.090053 0 255 255
-0.328142 0.171476 0.08555 0 255 255
-0.318981 0.167966 0.083299 0 255 255
-0.318452 0.168967 0.083299 0 255 255
-0.326512 0.174561 0.08555 0 255 255
-0.334539 0.180206 0.087801 0 255 255
-0.333972 0.181256 0.087801 0 255 255
-0.341949 0.186979 0.090053 0 255 255
-0.332826 0.183351 0.087801 0 255 255
-0.332249 0.184396 0.087801 0 255 255
-0.331668 0.185439 0.087801 0 255 255
-0.339573 0.191261 0.090053 0 255 255
-0.322022 0.182711 0.08555 0 255 255
-0.329905 0.188556 0.087801 0 255 255
-0.337755 0.194453 0.090053 0 255 255
-0.328714 0.190626 0.087801 0 255 255
-0.328113 0.191657 0.087801 0 255 255
-0.319112 0.187746 0.08555 0 255 255
-0.326903 0.193715 0.087801 0 255 255
-0.326293 0.194741 0.087801 0 255 255
-0.325679 0.195765 0.087801 0 255 255
-0.308393 0.186696 0.083299 0 255 255
-0.332762 0.20288 0.090053 0 255 255
-0.32382 0.198826 0.087801 0 255 255
-0.314907 0.194718 0.08555 0 255 255
-0.330835 0.206007 0.090053 0 255 255
-0.313677 0.196693 0.08555 0 255 255
-0.304819 0.192475 0.083299 0 255 255
-0.312435 0.19866 0.08555 0 255 255
-0.303638 0.194334 0.083299 0 255 255
-0.310584 0.201541 0.08555 0 255 255
-0.293636 0.191857 0.081047 0 255 255
-0.309311 0.203489 0.08555 0 255 255
-0.308671 0.20446 0.08555 0 255 255
-0.324239 0.21624 0.090053 0 255 255
-0.315469 0.211826 0.087801 0 255 255
-0.314802 0.212816 0.087801 0 255 255
-0.298022 0.20284 0.083299 0 255 255
-0.297384 0.203775 0.083299 0 255 255
-0.304762 0.210241 0.08555 0 255 255
-0.3041 0.211198 0.08555 0 255 255
-0.303435 0.212152 0.08555 0 255 255
-0.294799 0.207496 0.083299 0 255 255
-0.310046 0.219687 0.087801 0 255 255
-0.317286 0.226318 0.090053 0 255 255
-0.292831 0.210265 0.083299 0 255 255
-0.307962 0.2226 0.087801 0 255 255
-0.291504 0.212101 0.083299 0 255 255
-0.298735 0.218721 0.08555 0 255 255
-0.305889 0.225439 0.087801 0 255 255
-0.297354 0.220594 0.08555 0 255 255
-0.288853 0.215697 0.083299 0 255 255
-0.295924 0.222509 0.08555 0 255 255
-0.295223 0.223438 0.08555 0 255 255
-0.286808 0.21841 0.083299 0 255 255
-0.28612 0.21931 0.083299 0 255 255
-0.262287 0.202353 0.076545 0 255 255
-0.253954 0.1972 0.074293 0 255 255
-0.26101 0.203997 0.076545 0 255 255
-0.260368 0.204816 0.076545 0 255 255
-0.267362 0.211681 0.078796 0 255 255
-0.266696 0.21252 0.078796 0 255 255
-0.258426 0.207261 0.076545 0 255 255
-0.265355 0.214191 0.078796 0 255 255
-0.257119 0.20888 0.076545 0 255 255
-0.264004 0.215854 0.078796 0 255 255
-0.270848 0.222873 0.081047 0 255 255
-0.24013 0.198865 0.072042 0 255 255
-0.246989 0.205857 0.074293 0 255 255
-0.268736 0.225416 0.081047 0 255 255
-0.253136 0.213689 0.076545 0 255 255
-0.267314 0.2271 0.081047 0 255 255
-0.259194 0.221607 0.078796 0 255 255
-0.258496 0.22242 0.078796 0 255 255
-0.243102 0.210433 0.074293 0 255 255
-0.249786 0.217595 0.076545 0 255 255
-0.241775 0.211956 0.074293 0 255 255
-0.233801 0.206269 0.072042 0 255 255
-0.247724 0.21994 0.076545 0 255 255
-0.254298 0.227209 0.078796 0 255 255
-0.239092 0.214978 0.074293 0 255 255
-0.26009 0.235339 0.081047 0 255 255
-0.230533 0.209916 0.072042 0 255 255
-0.251423 0.230386 0.078796 0 255 255
-0.222046 0.204755 0.069791 0 255 255
-0.221402 0.205452 0.069791 0 255 255
-0.234998 0.219446 0.074293 0 255 255
-0.241407 0.226855 0.076545 0 255 255
-0.233614 0.220918 0.074293 0 255 255
-0.211745 0.201501 0.067539 0 255 255
-0.253333 0.242598 0.081047 0 255 255
-0.231522 0.22311 0.074293 0 255 255
-0.223825 0.217053 0.072042 0 255 255
-0.223142 0.217756 0.072042 0 255 255
-0.229409 0.225282 0.074293 0 255 255
-0.242561 0.239699 0.078796 0 255 255
-0.221119 0.21981 0.072042 0 255 255
-0.227315 0.227395 0.074293 0 255 255
-0.233466 0.23502 0.076545 0 255 255
-0.239572 0.242686 0.078796 0 255 255
-0.225162 0.229527 0.074293 0 255 255
-0.22444 0.230233 0.074293 0 255 255
-0.223715 0.230937 0.074293 0 255 255
-0.236503 0.245677 0.078796 0 255 255
-0.22226 0.232338 0.074293 0 255 255
-0.221529 0.233035 0.074293 0 255 255
-0.220796 0.23373 0.074293 0 255 255
-0.213392 0.227319 0.072042 0 255 255
-0.212677 0.227988 0.072042 0 255 255
-0.211959 0.228655 0.072042 0 255 255
-0.224485 0.243613 0.076545 0 255 255
-0.223719 0.244317 0.076545 0 255 255
-0.209835 0.230606 0.072042 0 255 255
-0.19604 0.21681 0.067539 0 255 255
-0.208382 0.23192 0.072042 0 255 255
-0.207653 0.232573 0.072042 0 255 255
-0.21981 0.247839 0.076545 0 255 255
-0.212588 0.241219 0.074293 0 255 255
-0.192611 0.219863 0.067539 0 255 255
-0.217508 0.249862 0.076545 0 255 255
-0.216722 0.250544 0.076545 0 255 255
-0.215934 0.251224 0.076545 0 255 255
-0.215144 0.251901 0.076545 0 255 255
-0.220656 0.260004 0.078796 0 255 255
-0.213557 0.253248 0.076545 0 255 255
-0.219018 0.261386 0.078796 0 255 255
-0.205727 0.247097 0.074293 0 255 255
-0.20495 0.247742 0.074293 0 255 255
-0.210402 0.255875 0.076545 0 255 255
-0.209597 0.256534 0.076545 0 255 255
-0.20879 0.257192 0.076545 0 255 255
-0.201864 0.250262 0.074293 0 255 255
-0.201077 0.250895 0.074293 0 255 255
-0.200288 0.251526 0.074293 0 255 255
-0.199497 0.252154 0.074293 0 255 255
-0.204725 0.260439 0.076545 0 255 255
-0.203906 0.261081 0.076545 0 255 255
-0.197111 0.254023 0.074293 0 255 255
-0.20821 0.270074 0.078796 0 255 255
-0.195511 0.255256 0.074293 0 255 255
-0.194708 0.255869 0.074293 0 255 255
-0.193904 0.25648 0.074293 0 255 255
-0.198949 0.264878 0.076545 0 255 255
-0.192288 0.257693 0.074293 0 255 255
-0.19728 0.266123 0.076545 0 255 255
-0.196443 0.266741 0.076545 0 255 255
-0.189896 0.259461 0.074293 0 255 255
-0.19481 0.267936 0.076545 0 255 255
-0.188262 0.260649 0.074293 0 255 255
-0.181763 0.253323 0.072042 0 255 255
-0.186621 0.261826 0.074293 0 255 255
-0.180167 0.25446 0.072042 0 255 255
-0.184972 0.262994 0.074293 0 255 255
-0.184145 0.263574 0.074293 0 255 255
-0.172206 0.248142 0.069791 0 255 255
-0.176956 0.256703 0.072042 0 255 255
-0.176193 0.257227 0.072042 0 255 255
-0.169904 0.249724 0.069791 0 255 255
-0.169118 0.250257 0.069791 0 255 255
-0.173761 0.258877 0.072042 0 255 255
-0.167542 0.251314 0.069791 0 255 255
-0.166752 0.251839 0.069791 0 255 255
-0.171314 0.260503 0.072042 0 255 255
-0.15451 0.236567 0.065288 0 255 255
-0.148464 0.228877 0.063037 0 255 255
-0.158298 0.245724 0.067539 0 255 255
-0.162776 0.254427 0.069791 0 255 255
-0.146301 0.230266 0.063037 0 255 255
-0.140377 0.222484 0.060785 0 255 255
-0.139678 0.222924 0.060785 0 255 255
-0.128682 0.206817 0.056283 0 255 255
-0.138274 0.223798 0.060785 0 255 255
-0.144551 2.01167 0.466022 0 255 255
-0.136227 1.98296 0.459268 0 255 255
-0.13191 2.01254 0.466022 0 255 255
-0.124979 2.00322 0.463771 0 255 255
3.11059 26.7208 6.21588 0 255 255
3.18875 26.6625 6.20462 0 255 255
3.28794 26.7781 6.23389 0 255 255
3.35987 26.6709 6.21137 0 255 255
3.45487 26.7472 6.23164 0 255 255
3.52609 26.6396 6.20912 0 255 255
3.57966 26.4064 6.15734 0 255 255
3.66202 26.4246 6.16409 0 255 255
3.75732 26.4998 6.18436 0 255 255
3.83915 26.4782 6.18211 0 255 255
3.48762 23.0337 5.38289 0 255 255
3.55104 22.9648 5.36938 0 255 255
3.6262 22.9728 5.37388 0 255 255
3.70455 22.9998 5.38289 0 255 255
3.77679 22.988 5.38289 0 255 255
4.05343 24.1964 5.66881 0 255 255
4.08281 23.0841 5.41666 0 255 255
4.15703 23.0807 5.41891 0 255 255
4.25993 23.2106 5.45268 0 255 255
4.33105 23.1875 5.45043 0 255 255
4.3984 23.145 5.44368 0 255 255
4.4711 23.1311 5.44368 0 255 255
5.30381 24.5518 5.80388 0 255 255
5.4262 24.3754 5.77011 0 255 255
5.28939 22.7478 5.3964 0 255 255
5.36083 22.7311 5.3964 0 255 255
5.43447 22.7236 5.39865 0 255 255
5.50188 22.7074 5.39865 0 255 255
5.57087 22.6805 5.3964 0 255 255
5.62797 22.6062 5.38289 0 255 255
5.67989 22.5128 5.36488 0 255 255
5.70232 22.306 5.31985 0 255 255
5.76749 22.2692 5.31535 0 255 255
5.88688 22.4394 5.36038 0 255 255
5.93982 22.3549 5.34462 0 255 255
5.99853 22.3089 5.33786 0 255 255
6.0737 22.3088 5.34237 0 255 255
6.12564 22.2238 5.32661 0 255 255
6.19805 22.2139 5.32886 0 255 255
6.29693 22.2974 5.35362 0 255 255
6.85692 23.9919 5.76561 0 255 255
6.93767 23.989 5.77011 0 255 255
7.71142 25.4772 6.15059 0 255 255
7.88576 25.4748 6.16184 0 255 255
0.720231 2.07055 0.506545 0 255 255
0.798872 2.10415 0.520053 0 255 255
0.819425 2.13802 0.529059 0 255 255
1.7888 2.17462 0.650629 0 255 255
1.77698 2.14648 0.643876 0 255 255
50.0809 59.3468 17.943 0 255 255
1.86745 2.18496 0.664137 0 255 255
1.87431 2.17908 0.664137 0 255 255
1.87477 2.16582 0.661886 0 255 255
1.87516 2.15257 0.659635 0 255 255
2.81398 2.28441 0.837489 0 255 255
2.81356 2.26944 0.835237 0 255 255
5.42077 3.25584 1.4611 0 255 255
5.42261 3.2338 1.45885 0 255 255
5.3992 3.1969 1.44985 0 255 255
5.43442 3.19473 1.4566 0 255 255
5.38552 3.14326 1.44084 0 255 255
5.44595 3.15564 1.45435 0 255 255
5.43895 3.1288 1.44985 0 255 255
5.40645 3.08754 1.43859 0 255 255
5.4246 3.07534 1.44084 0 255 255
5.45068 3.06879 1.44534 0 255 255
5.45179 3.0469 1.44309 0 255 255
5.45281 3.02503 1.44084 0 255 255
5.47936 3.01729 1.44534 0 255 255
5.44658 2.97574 1.43409 0 255 255
5.46447 2.96326 1.43634 0 255 255
5.45659 2.93684 1.43184 0 255 255
5.47439 2.92428 1.43409 0 255 255
5.92203 3.14085 1.5489 0 255 255
5.89738 3.10407 1.5399 0 255 255
5.38025 2.70363 1.39131 0 255 255
5.33639 2.66063 1.3778 0 255 255
5.44079 2.69137 1.40257 0 255 255
5.45797 2.67856 1.40482 0 255 255
5.46635 2.6614 1.40482 0 255 255
5.47469 2.64421 1.40482 0 255 255
5.48297 2.627 1.40482 0 255 255
5.4824 2.60558 1.40257 0 255 255
5.48174 2.58419 1.40032 0 255 255
5.48983 2.56695 1.40032 0 255 255
5.48903 2.54559 1.39806 0 255 255
5.497 2.52834 1.39806 0 255 255
5.50492 2.51106 1.39806 0 255 255
5.49502 2.48572 1.39356 0 255 255
5.49392 2.46446 1.39131 0 255 255
5.50163 2.44718 1.39131 0 255 255
5.50038 2.42596 1.38906 0 255 255
5.47226 2.39305 1.38005 0 255 255
5.48869 2.37972 1.38231 0 255 255
5.47824 2.35477 1.3778 0 255 255
5.48561 2.33755 1.3778 0 255 255
5.44805 2.30135 1.36655 0 255 255
5.23956 2.19391 1.31252 0 255 255
5.35403 2.22319 1.33953 0 255 255
5.46009 2.24714 1.3643 0 255 255
5.44909 2.22262 1.35979 0 255 255
4.96825 2.00831 1.23822 0 255 255
5.44485 2.18109 1.35529 0 255 255
4.94454 1.96268 1.22922 0 255 255
5.09576 2.00419 1.26524 0 255 255
4.9477 1.92803 1.22697 0 255 255
5.10825 1.97213 1.26524 0 255 255
5.15083 1.97 1.27424 0 255 255
5.11143 1.93655 1.26299 0 255 255
5.50974 2.06768 1.35979 0 255 255
5.0961 1.89421 1.25623 0 255 255
5.52262 2.03302 1.35979 0 255 255
5.52898 2.01567 1.35979 0 255 255
5.53529 1.99828 1.35979 0 255 255
5.54154 1.98088 1.35979 0 255 255
5.54773 1.96347 1.35979 0 255 255
5.55388 1.94603 1.35979 0 255 255
5.55076 1.92538 1.35754 0 255 255
5.54429 1.88419 1.35304 0 255 255
5.55019 1.86677 1.35304 0 255 255
5.55602 1.84932 1.35304 0 255 255
5.55255 1.82881 1.35079 0 255 255
5.55827 1.81135 1.35079 0 255 255
5.56393 1.79388 1.35079 0 255 255
5.59739 1.78528 1.35754 0 255 255
5.6866 1.79407 1.3778 0 255 255
5.78521 1.80522 1.40032 0 255 255
5.88396 1.81576 1.42283 0 255 255
5.9735 1.82286 1.44309 0 255 255
6.08181 1.83505 1.46786 0 255 255
6.17157 1.841 1.48812 0 255 255
6.28013 1.85191 1.51288 0 255 255
6.39816 1.86489 1.5399 0 255 255
6.50698 1.87445 1.56466 0 255 255
8.79935 2.5049 2.11398 0 255 255
8.7978 2.47461 2.11173 0 255 255
8.79615 2.44434 2.10948 0 255 255
8.80378 2.4167 2.10948 0 255 255
8.80192 2.38648 2.10723 0 255 255
8.79997 2.3563 2.10498 0 255 255
8.80733 2.32864 2.10498 0 255 255
8.80517 2.2985 2.10273 0 255 255
8.81235 2.27082 2.10273 0 255 255
8.81944 2.24313 2.10273 0 255 255
8.82644 2.21541 2.10273 0 255 255
8.81444 2.18299 2.09822 0 255 255
8.83072 2.15759 2.10048 0 255 255
8.82799 2.12756 2.09822 0 255 255
8.82515 2.09756 2.09597 0 255 255
8.83169 2.06983 2.09597 0 255 255
8.83815 2.04207 2.09597 0 255 255
8.84452 2.01429 2.09597 0 255 255
8.8413 1.98437 2.09372 0 255 255
8.83798 1.95448 2.09147 0 255 255
8.85359 1.92878 2.09372 0 255 255
8.85008 1.89891 2.09147 0 255 255
8.85601 1.87109 2.09147 0 255 255
8.86184 1.84327 2.09147 0 255 255
8.85804 1.81346 2.08922 0 255 255
8.8637 1.78562 2.08922 0 255 255
8.8597 1.75587 2.08697 0 255 255
8.87474 1.7299 2.08922 0 255 255
8.86099 1.69834 2.08472 0 255 255
8.87586 1.6723 2.08697 0 255 255
8.88107 1.6444 2.08697 0 255 255
8.87661 1.61475 2.08472 0 255 255
8.88163 1.58686 2.08472 0 255 255
8.88658 1.55895 2.08472 0 255 255
8.88183 1.52937 2.08246 0 255 255
8.88659 1.50146 2.08246 0 255 255
8.89126 1.47353 2.08246 0 255 255
8.89585 1.44559 2.08246 0 255 255
8.89072 1.41611 2.08021 0 255 255
8.89513 1.38817 2.08021 0 255 255
8.89945 1.36021 2.08021 0 255 255
8.90367 1.33225 2.08021 0 255 255
8.90781 1.30428 2.08021 0 255 255
8.91187 1.27629 2.08021 0 255 255
8.91583 1.24828 2.08021 0 255 255
8.92937 1.22158 2.08246 0 255 255
8.9235 1.19223 2.08021 0 255 255
8.9272 1.1642 2.08021 0 255 255
8.93082 1.13614 2.08021 0 255 255
8.93434 1.10808 2.08021 0 255 255
8.92811 1.07884 2.07796 0 255 255
8.94113 1.05192 2.08021 0 255 255
8.93471 1.02272 2.07796 0 255 255
8.94756 0.995722 2.08021 0 255 255
8.95064 0.96761 2.08021 0 255 255
8.95364 0.939483 2.08021 0 255 255
8.94685 0.910365 2.07796 0 255 255
8.95937 0.883211 2.08021 0 255 255
8.9621 0.855057 2.08021 0 255 255
8.96474 0.8269 2.08021 0 255 255
8.96729 0.798729 2.08021 0 255 255
8.96005 0.769726 2.07796 0 255 255
8.96242 0.741571 2.07796 0 255 255
8.97442 0.714181 2.08021 0 255 255
8.97662 0.685986 2.08021 0 255 255
8.96902 0.657067 2.07796 0 255 255
8.98075 0.629574 2.08021 0 255 255
8.97297 0.600704 2.07796 0 255 255
8.99426 0.573749 2.08246 0 255 255
8.98629 0.544902 2.08021 0 255 255
8.99768 0.517229 2.08246 0 255 255
8.98954 0.488433 2.08021 0 255 255
9.00076 0.460684 2.08246 0 255 255
9.00216 0.432403 2.08246 0 255 255
9.01321 0.404558 2.08472 0 255 255
9.00463 0.377407 2.08246 0 255 255
9.00577 0.349114 2.08246 0 255 255
9.00694 0.317678 2.08246 0 255 255
9.01763 0.28969 2.08472 0 255 255
9.02823 0.261643 2.08697 0 255 255
9.01927 0.233029 2.08472 0 255 255
9.01996 0.204691 2.08472 0 255 255
9.02056 0.176354 2.08472 0 255 255
9.02107 0.148012 2.08472 0 255 255
9.03123 0.119802 2.08697 0 255 255
9.03155 0.093007 2.08697 0 255 255
9.04154 0.0647 2.08922 0 255 255
9.04169 0.036296 2.08922 0 255 255
9.04176 0.007888 2.08922 0 255 255
9.05149 -0.020537 2.09147 0 255 255
9.05138 -0.048973 2.09147 0 255 255
9.06092 -0.077492 2.09372 0 255 255
9.06063 -0.105957 2.09372 0 255 255
9.06023 -0.136003 2.09372 0 255 255
9.05976 -0.164466 2.09372 0 255 255
9.06894 -0.193134 2.09597 0 255 255
9.05855 -0.221386 2.09372 0 255 255
9.06755 -0.250112 2.09597 0 255 255
9.07646 -0.278896 2.09822 0 255 255
9.08527 -0.307739 2.10048 0 255 255
9.08426 -0.33628 2.10048 0 255 255
9.08316 -0.364817 2.10048 0 255 255
9.0917 -0.393773 2.10273 0 255 255
9.08069 -0.421881 2.10048 0 255 255
9.09878 -0.451372 2.10498 0 255 255
9.10705 -0.480468 2.10723 0 255 255
9.10549 -0.509076 2.10723 0 255 255
9.11358 -0.538254 2.10948 0 255 255
9.11184 -0.566882 2.10948 0 255 255
9.11001 -0.595505 2.10948 0 255 255
9.11782 -0.624788 2.11173 0 255 255
9.11581 -0.65343 2.11173 0 255 255
9.12343 -0.682791 2.11398 0 255 255
9.12124 -0.71145 2.11398 0 255 255
9.12867 -0.74089 2.11623 0 255 255
9.1263 -0.769565 2.11623 0 255 255
9.13354 -0.799081 2.11849 0 255 255
9.13099 -0.827771 2.11849 0 255 255
9.13804 -0.857363 2.12074 0 255 255
9.1353 -0.886067 2.12074 0 255 255
9.15186 -0.916704 2.12524 0 255 255
9.13925 -0.944449 2.12299 0 255 255
9.14592 -0.974188 2.12524 0 255 255
9.1525 -1.00398 2.12749 0 255 255
9.13962 -1.03163 2.12524 0 255 255
9.16537 -1.06371 2.13199 0 255 255
9.17166 -1.09365 2.13424 0 255 255
9.16818 -1.12246 2.13424 0 255 255
9.16461 -1.15126 2.13424 0 255 255
9.17061 -1.18129 2.1365 0 255 255
9.18617 -1.21265 2.141 0 255 255
9.18231 -1.2415 2.141 0 255 255
9.17837 -1.27034 2.141 0 255 255
9.18398 -1.30053 2.14325 0 255 255
9.18949 -1.33078 2.1455 0 255 255
9.1949 -1.36107 2.14775 0 255 255
9.19058 -1.38995 2.14775 0 255 255
9.20518 -1.42339 2.15226 0 255 255
9.20066 -1.4523 2.15226 0 255 255
9.20567 -1.48275 2.15451 0 255 255
9.21059 -1.51324 2.15676 0 255 255
9.2154 -1.54378 2.15901 0 255 255
9.2105 -1.57273 2.15901 0 255 255
9.21511 -1.60332 2.16126 0 255 255
9.21962 -1.63397 2.16351 0 255 255
9.22403 -1.66465 2.16576 0 255 255
9.22834 -1.69538 2.16802 0 255 255
9.23255 -1.72616 2.17027 0 255 255
9.24622 -1.75879 2.17477 0 255 255
9.24065 -1.78783 2.17477 0 255 255
9.24455 -1.81874 2.17702 0 255 255
9.23879 -1.84777 2.17702 0 255 255
9.25204 -1.88067 2.18152 0 255 255
9.24608 -1.90972 2.18152 0 255 255
9.24957 -1.94076 2.18377 0 255 255
9.25296 -1.97184 2.18602 0 255 255
9.25624 -2.00296 2.18828 0 255 255
9.26894 -2.03621 2.19278 0 255 255
9.272 -2.06744 2.19503 0 255 255
9.26546 -2.09656 2.19503 0 255 255
9.30631 -2.13656 2.20629 0 255 255
9.27108 -2.15915 2.19953 0 255 255
9.25477 -2.18603 2.19728 0 255 255
9.29485 -2.22806 2.20854 0 255 255
9.26887 -2.25265 2.20404 0 255 255
9.1766 -2.26078 2.18377 0 255 255
9.16 -2.28724 2.18152 0 255 255
9.28501 -2.34947 2.21304 0 255 255
9.22095 -2.36411 2.19953 0 255 255
9.16633 -2.38082 2.18828 0 255 255
9.2813 -2.44183 2.21754 0 255 255
9.26416 -2.46847 2.21529 0 255 255
9.29399 -2.50771 2.2243 0 255 255
9.22027 -2.51892 2.20854 0 255 255
9.15597 -2.53229 2.19503 0 255 255
9.31686 -2.60833 2.23555 0 255 255
8.94302 -2.53399 2.14775 0 255 255
9.25346 -2.65339 2.2243 0 255 255
9.31993 -2.70416 2.24231 0 255 255
8.872 -2.60444 2.1365 0 255 255
9.29342 -2.7599 2.24006 0 255 255
9.24738 -2.77786 2.23105 0 255 255
8.80045 -2.67378 2.12524 0 255 255
9.29444 -2.85757 2.24681 0 255 255
9.34136 -2.93636 2.26257 0 255 255
9.32281 -2.96274 2.26032 0 255 255
8.66411 -2.78341 2.10273 0 255 255
8.60016 -2.8226 2.09147 0 255 255
8.52683 -2.858 2.07796 0 255 255
9.36682 -3.17232 2.28508 0 255 255
9.3917 -3.27973 2.29859 0 255 255
9.37216 -3.30597 2.29634 0 255 255
9.40385 -3.58722 2.32561 0 255 255
9.43561 -3.66741 2.33911 0 255 255
8.12599 -3.21731 2.01943 0 255 255
7.86832 -3.40655 1.98116 0 255 255
9.48267 -4.1409 2.39089 0 255 255
9.49625 -4.32569 2.41116 0 255 255
7.67809 -3.61467 1.96089 0 255 255
7.59103 -3.66148 1.94739 0 255 255
7.54098 -3.69756 1.94063 0 255 255
7.51186 -3.71259 1.93613 0 255 255
7.48272 -3.72748 1.93163 0 255 255
7.46226 -3.7466 1.92938 0 255 255
7.45046 -3.77003 1.92938 0 255 255
9.53908 -4.8646 2.47419 0 255 255
9.54294 -4.94236 2.4832 0 255 255
9.55328 -4.98584 2.48995 0 255 255
9.55481 -5.0249 2.49446 0 255 255
9.56619 -5.14871 2.51021 0 255 255
9.57641 -5.23207 2.52147 0 255 255
9.58595 -5.31577 2.53273 0 255 255
9.60323 -5.36486 2.54173 0 255 255
9.59482 -5.39978 2.54398 0 255 255
9.59476 -5.43951 2.54849 0 255 255
9.57762 -5.46963 2.54849 0 255 255
9.61106 -5.52884 2.56199 0 255 255
9.6358 -5.58343 2.57325 0 255 255
8.67574 -5.0636 2.3211 0 255 255
8.601 -5.05627 2.30535 0 255 255
8.11521 -5.08672 2.21304 0 255 255
9.68863 -6.24389 2.6633 0 255 255
7.87085 -5.10748 2.16802 0 255 255
7.79767 -5.09488 2.15226 0 255 255
7.55435 -5.10891 2.10723 0 255 255
7.48994 -5.09972 2.09372 0 255 255
7.42566 -5.09017 2.08021 0 255 255
9.47054 -6.53573 2.6588 0 255 255
9.44196 -6.55989 2.65655 0 255 255
7.3055 -5.10967 2.05995 0 255 255
7.24161 -5.09894 2.04644 0 255 255
7.19377 -5.09913 2.03744 0 255 255
7.10619 -5.10443 2.02168 0 255 255
7.08133 -5.12226 2.01943 0 255 255
7.0337 -5.12154 2.01042 0 255 255
6.96256 -5.10329 1.99466 0 255 255
6.92298 -5.10779 1.98791 0 255 255
6.86778 -5.10047 1.97665 0 255 255
6.82832 -5.10452 1.9699 0 255 255
9.78861 -6.55291 2.28965 0 255 255
9.80054 -6.60557 2.29728 0 255 255
9.77974 -6.63633 2.29728 0 255 255
9.80747 -6.70024 2.30873 0 255 255
9.80946 -6.74942 2.31445 0 255 255
9.81242 -6.79697 2.32017 0 255 255
9.82322 -6.85023 2.32781 0 255 255
9.81772 -6.89233 2.33162 0 255 255
9.82809 -6.94581 2.33926 0 255 255
9.83821 -6.99941 2.34689 0 255 255
9.8481 -7.05314 2.35452 0 255 255
9.84181 -7.09553 2.35834 0 255 255
9.84206 -7.14543 2.36406 0 255 255
9.85127 -7.19948 2.37169 0 255 255
9.86023 -7.25366 2.37932 0 255 255
9.86895 -7.30797 2.38696 0 255 255
9.87742 -7.3624 2.39459 0 255 255
9.88565 -7.41696 2.40222 0 255 255
9.90147 -7.47756 2.41176 0 255 255
9.89356 -7.52051 2.41558 0 255 255
9.90107 -7.57542 2.42321 0 255 255
9.90833 -7.63044 2.43084 0 255 255
9.90758 -7.67957 2.43656 0 255 255
9.91302 -7.73654 2.4442 0 255 255
9.91954 -7.7919 2.45183 0 255 255
9.91811 -7.84129 2.45755 0 255 255
9.92416 -7.89686 2.46519 0 255 255
9.93761 -7.95868 2.47473 0 255 255
9.93548 -8.00834 2.48045 0 255 255
9.94077 -8.06425 2.48808 0 255 255
9.95341 -8.12648 2.49762 0 255 255
9.95058 -8.17641 2.50335 0 255 255
10.5073 -8.68932 2.65026 0 255 255
10.2234 -8.50879 2.58539 0 255 255
10.46 -8.76148 2.65217 0 255 255
10.425 -8.78797 2.65026 0 255 255
10.3958 -8.82249 2.65026 0 255 255
10.368 -8.8551 2.65026 0 255 255
10.3401 -8.88763 2.65026 0 255 255
7.4687 -6.46047 1.91949 0 255 255
7.48539 -6.51613 1.92903 0 255 255
7.42796 -6.50727 1.91949 0 255 255
7.38539 -6.5111 1.91376 0 255 255
7.34287 -6.51472 1.90804 0 255 255
7.30772 -6.52468 1.90422 0 255 255
7.25798 -6.52137 1.89659 0 255 255
7.21562 -6.52439 1.89087 0 255 255
7.17216 -6.52845 1.88514 0 255 255
7.13714 -6.53769 1.88133 0 255 255
7.09491 -6.54012 1.8756 0 255 255
7.05994 -6.54903 1.87179 0 255 255
7.0178 -6.55108 1.86606 0 255 255
6.98288 -6.55965 1.86225 0 255 255
6.9337 -6.55458 1.85461 0 255 255
6.90596 -6.56957 1.85271 0 255 255
6.86402 -6.57087 1.84698 0 255 255
6.82805 -6.57997 1.84317 0 255 255
6.78621 -6.58089 1.83744 0 255 255
6.74442 -6.58161 1.83172 0 255 255
6.7027 -6.58213 1.82599 0 255 255
6.66803 -6.58935 1.82218 0 255 255
6.63337 -6.59643 1.81836 0 255 255
6.59874 -6.60335 1.81455 0 255 255
6.55721 -6.60315 1.80882 0 255 255
6.51575 -6.60276 1.8031 0 255 255
6.47435 -6.60217 1.79737 0 255 255
6.46728 -6.63653 1.80119 0 255 255
6.46689 -6.67797 1.80691 0 255 255
6.47193 -6.72768 1.81455 0 255 255
6.47789 -6.77636 1.82218 0 255 255
6.47567 -6.81916 1.8279 0 255 255
6.4891 -6.87403 1.83744 0 255 255
6.49433 -6.92302 1.84507 0 255 255
6.49932 -6.97211 1.85271 0 255 255
6.50407 -7.0213 1.86034 0 255 255
6.51522 -7.07781 1.86988 0 255 255
6.51946 -7.12722 1.87751 0 255 255
6.51684 -7.16946 1.88323 0 255 255
6.52593 -7.22746 1.89277 0 255 255
6.53596 -7.28445 1.90231 0 255 255
6.53265 -7.32693 1.90804 0 255 255
6.54214 -7.38415 1.91758 0 255 255
6.55135 -7.44151 1.92712 0 255 255
6.55379 -7.49161 1.93475 0 255 255
6.55598 -7.54179 1.94238 0 255 255
6.55792 -7.59207 1.95001 0 255 255
6.56601 -7.64988 1.95956 0 255 255
6.56742 -7.70034 1.96719 0 255 255
6.57358 -7.75953 1.97673 0 255 255
6.58709 -7.8252 1.98818 0 255 255
6.58767 -7.87597 1.99581 0 255 255
6.59427 -7.93438 2.00535 0 255 255
6.60056 -7.9929 2.01489 0 255 255
7.88303 -9.60721 2.41558 0 255 255
7.828 -9.60149 2.40794 0 255 255
7.78376 -9.61214 2.40413 0 255 255
7.73674 -9.61225 2.3984 0 255 255
7.68811 -9.61351 2.39268 0 255 255
7.64398 -9.62358 2.38886 0 255 255
7.60154 -9.63214 2.38505 0 255 255
7.55308 -9.6328 2.37932 0 255 255
7.50468 -9.63325 2.3736 0 255 255
7.45635 -9.63349 2.36788 0 255 255
7.41408 -9.6413 2.36406 0 255 255
7.37016 -9.65023 2.36024 0 255 255
7.32793 -9.6577 2.35643 0 255 255
7.27983 -9.65716 2.3507 0 255 255
7.24357 -9.67212 2.34879 0 255 255
7.18971 -9.66333 2.34116 0 255 255
7.15348 -9.67797 2.33926 0 255 255
7.10561 -9.67666 2.33353 0 255 255
7.06361 -9.68307 2.32972 0 255 255
7.02163 -9.68932 2.3259 0 255 255
6.98542 -9.70337 2.32399 0 255 255
6.93778 -9.70131 2.31827 0 255 255
6.89021 -9.69905 2.31254 0 255 255
6.85235 -9.71382 2.31064 0 255 255
6.81053 -9.71923 2.30682 0 255 255
6.76705 -9.72564 2.303 0 255 255
6.72142 -9.72145 2.29728 0 255 255
6.67417 -9.71825 2.29155 0 255 255
6.65467 -9.75538 2.29537 0 255 255
6.60747 -9.75186 2.28965 0 255 255
6.56584 -9.75628 2.28583 0 255 255
6.51709 -9.75352 2.28011 0 255 255
6.48099 -9.76576 2.2782 0 255 255
6.43947 -9.76969 2.27438 0 255 255
6.398 -9.77344 2.27057 0 255 255
6.35121 -9.7688 2.26484 0 255 255
6.30984 -9.77221 2.26102 0 255 255
6.2668 -9.77656 2.25721 0 255 255
6.23079 -9.78792 2.2553 0 255 255
6.18952 -9.79085 2.25149 0 255 255
6.15351 -9.80193 2.24958 0 255 255
6.1123 -9.80455 2.24576 0 255 255
6.0763 -9.81536 2.24385 0 255 255
6.03344 -9.81873 2.24004 0 255 255
5.99233 -9.82088 2.23622 0 255 255
5.95299 -9.82182 2.2324 0 255 255
5.91198 -9.82366 2.22859 0 255 255
5.87103 -9.82533 2.22477 0 255 255
5.83011 -9.82684 2.22096 0 255 255
5.79423 -9.83665 2.21905 0 255 255
5.75167 -9.83886 2.21523 0 255 255
5.7158 -9.84839 2.21333 0 255 255
5.67013 -9.84078 2.2076 0 255 255
5.62944 -9.84151 2.20378 0 255 255
5.5888 -9.84207 2.19997 0 255 255
5.55303 -9.85103 2.19806 0 255 255
5.51727 -9.85986 2.19615 0 255 255
5.47501 -9.86094 2.19234 0 255 255
5.43926 -9.86949 2.19043 0 255 255
5.40352 -9.87792 2.18852 0 255 255
5.36309 -9.87759 2.1847 0 255 255
5.32738 -9.88575 2.1828 0 255 255
5.28704 -9.88512 2.17898 0 255 255
5.24963 -9.89393 2.17707 0 255 255
5.20937 -9.893 2.17326 0 255 255
5.16917 -9.89192 2.16944 0 255 255
5.13355 -9.8994 2.16753 0 255 255
5.09794 -9.90675 2.16562 0 255 255
5.05786 -9.90523 2.16181 0 255 255
5.02228 -9.91231 2.1599 0 255 255
4.9867 -9.91927 2.15799 0 255 255
4.95114 -9.9261 2.15608 0 255 255
4.91122 -9.92401 2.15227 0 255 255
4.87569 -9.93058 2.15036 0 255 255
4.50835 -9.33427 2.01489 0 255 255
4.54686 -9.49003 2.04542 0 255 255
4.70243 -9.89437 2.12937 0 255 255
4.68806 -9.94461 2.137 0 255 255
4.64848 -9.94151 2.13319 0 255 255
4.61723 -9.95606 2.13319 0 255 255
4.58182 -9.9616 2.13128 0 255 255
4.54643 -9.96701 2.12937 0 255 255
4.50527 -9.96414 2.12556 0 255 255
4.47394 -9.97825 2.12556 0 255 255
4.43061 -9.96535 2.11983 0 255 255
4.39532 -9.97023 2.11792 0 255 255
4.36004 -9.975 2.11601 0 255 255
4.32478 -9.97964 2.11411 0 255 255
4.28779 -9.98491 2.1122 0 255 255
4.25256 -9.9893 2.11029 0 255 255
4.21734 -9.99356 2.10838 0 255 255
4.18213 -9.99771 2.10647 0 255 255
4.1507 -10.0108 2.10647 0 255 255
4.1155 -10.0147 2.10457 0 255 255
4.08032 -10.0185 2.10266 0 255 255
4.04515 -10.0222 2.10075 0 255 255
4.01 -10.0257 2.09884 0 255 255
3.9695 -10.0207 2.09503 0 255 255
3.93441 -10.024 2.09312 0 255 255
3.89934 -10.0271 2.09121 0 255 255
3.86429 -10.0302 2.0893 0 255 255
3.82576 -10.0239 2.08549 0 255 255
3.76127 -9.95392 2.06831 0 255 255
3.74719 -10.0117 2.07785 0 255 255
3.71913 -10.0326 2.07976 0 255 255
3.68421 -10.035 2.07785 0 255 255
3.65266 -10.0465 2.07785 0 255 255
3.61776 -10.0487 2.07595 0 255 255
3.57453 -10.0329 2.07022 0 255 255
3.54953 -10.0626 2.07404 0 255 255
3.5179 -10.0737 2.07404 0 255 255
3.4702 -10.0383 2.0645 0 255 255
3.39733 -9.92844 2.03969 0 255 255
3.40706 -10.0599 2.0645 0 255 255
3.37231 -10.0613 2.06259 0 255 255
3.34378 -10.0811 2.0645 0 255 255
3.31515 -10.1009 2.06641 0 255 255
3.28037 -10.1019 2.0645 0 255 255
3.24562 -10.1029 2.06259 0 255 255
3.21089 -10.1037 2.06068 0 255 255
3.17913 -10.1137 2.06068 0 255 255
3.14266 -10.1148 2.05877 0 255 255
3.10799 -10.1152 2.05686 0 255 255
3.07334 -10.1156 2.05496 0 255 255
3.03872 -10.1158 2.05305 0 255 255
3.00693 -10.1253 2.05305 0 255 255
2.97334 -10.1352 2.05305 0 255 255
2.93875 -10.135 2.05114 0 255 255
2.90689 -10.1442 2.05114 0 255 255
2.87234 -10.1439 2.04923 0 255 255
2.83781 -10.1434 2.04732 0 255 255
2.80593 -10.1522 2.04732 0 255 255
2.76966 -10.152 2.04542 0 255 255
2.73776 -10.1607 2.04542 0 255 255
2.7033 -10.1597 2.04351 0 255 255
2.67137 -10.1682 2.04351 0 255 255
2.63694 -10.167 2.0416 0 255 255
2.60499 -10.1753 2.0416 0 255 255
2.57061 -10.1739 2.03969 0 255 255
2.53863 -10.1819 2.03969 0 255 255
2.50251 -10.1807 2.03779 0 255 255
2.47283 -10.1981 2.03969 0 255 255
2.43621 -10.1867 2.03588 0 255 255
2.4042 -10.1943 2.03588 0 255 255
2.36994 -10.1923 2.03397 0 255 255
2.3379 -10.1996 2.03397 0 255 255
2.30585 -10.2069 2.03397 0 255 255
2.27164 -10.2046 2.03206 0 255 255
2.23779 -10.212 2.03206 0 255 255
2.20362 -10.2094 2.03015 0 255 255
2.17154 -10.2163 2.03015 0 255 255
2.13742 -10.2134 2.02824 0 255 255
2.10532 -10.2201 2.02824 0 255 255
2.07321 -10.2267 2.02824 0 255 255
2.03915 -10.2235 2.02634 0 255 255
2.00702 -10.2299 2.02634 0 255 255
1.97123 -10.2268 2.02443 0 255 255
1.93909 -10.233 2.02443 0 255 255
1.90693 -10.239 2.02443 0 255 255
1.87476 -10.245 2.02443 0 255 255
1.84083 -10.2411 2.02252 0 255 255
1.80864 -10.2469 2.02252 0 255 255
1.77644 -10.2525 2.02252 0 255 255
1.74422 -10.258 2.02252 0 255 255
1.71037 -10.2538 2.02061 0 255 255
1.67815 -10.2591 2.02061 0 255 255
1.64412 -10.2646 2.02061 0 255 255
1.61339 -10.2794 2.02252 0 255 255
1.5778 -10.275 2.02061 0 255 255
1.54731 -10.2796 2.02061 0 255 255
1.51501 -10.2845 2.02061 0 255 255
1.48269 -10.2892 2.02061 0 255 255
1.4472 -10.2843 2.0187 0 255 255
1.41488 -10.2888 2.0187 0 255 255
1.38385 -10.3029 2.02061 0 255 255
1.35148 -10.3072 2.02061 0 255 255
1.31785 -10.3017 2.0187 0 255 255
1.28548 -10.3058 2.0187 0 255 255
1.2531 -10.3098 2.0187 0 255 255
1.2207 -10.3136 2.0187 0 255 255
1.18649 -10.3176 2.0187 0 255 255
1.15298 -10.3116 2.0168 0 255 255
1.12164 -10.3249 2.0187 0 255 255
1.0892 -10.3284 2.0187 0 255 255
1.05575 -10.322 2.0168 0 255 255
1.02428 -10.335 2.0187 0 255 255
0.989935 -10.3186 2.01489 0 255 255
0.459017 -5.13307 1.00172 0 255 255
0.366121 -4.2445 0.828089 0 255 255
0.299136 -3.59998 0.702158 0 255 255
0.294864 -3.68897 0.71933 0 255 255
0.283273 -3.68988 0.71933 0 255 255
0.270317 -3.68101 0.717422 0 255 255
0.258751 -3.68184 0.717422 0 255 255
0.146004 -2.28253 0.444573 0 255 255
0.137641 -2.26338 0.440757 0 255 255
0.13053 -2.2638 0.440757 0 255 255
0.122883 -2.2544 0.438849 0 255 255
0.115297 -2.24497 0.436941 0 255 255
0.107771 -2.23552 0.435033 0 255 255
0.100357 -2.23586 0.435033 0 255 255
0.092513 -2.21655 0.431217 0 255 255
0.08555 -2.21683 0.431217 0 255 255
0.077889 -2.19747 0.427401 0 255 255
0.070985 -2.1977 0.427401 0 255 255
0.063795 -2.1881 0.425493 0 255 255
0.05692 -2.18829 0.425493 0 255 255
0.049821 -2.17864 0.423585 0 255 255
0.042404 -2.16898 0.421677 0 255 255
0.035429 -2.15929 0.419768 0 255 255
0.028645 -2.15939 0.419768 0 255 255
0.021861 -2.15947 0.419768 0 255 255
0.015008 -2.14971 0.41786 0 255 255
0.008254 -2.14975 0.41786 0 255 255
0.001501 -2.14977 0.41786 0 255 255
-0.005602 -2.13994 0.415952 0 255 255
-0.012325 -2.13991 0.415952 0 255 255
-0.019048 -2.13986 0.415952 0 255 255
-0.02577 -2.13979 0.415952 0 255 255
-0.032493 -2.1397 0.415952 0 255 255
-0.039214 -2.13959 0.415952 0 255 255
-0.045725 -2.12964 0.414044 0 255 255
-0.053031 -2.13929 0.415952 0 255 255
-0.059477 -2.1293 0.414044 0 255 255
-0.066471 -2.13892 0.415952 0 255 255
-0.072854 -2.12889 0.414044 0 255 255
-0.079542 -2.12865 0.414044 0 255 255
-0.085832 -2.11858 0.412136 0 255 255
-0.092915 -2.12811 0.414044 0 255 255
-0.0996 -2.1278 0.414044 0 255 255
-0.106656 -2.12746 0.414044 0 255 255
-0.113339 -2.12712 0.414044 0 255 255
-0.120021 -2.12675 0.414044 0 255 255
-0.126702 -2.12636 0.414044 0 255 255
-0.134368 -2.13573 0.415952 0 255 255
-0.141078 -2.13529 0.415952 0 255 255
-0.147785 -2.13484 0.415952 0 255 255
-0.154491 -2.13437 0.415952 0 255 255
-0.161935 -2.14366 0.41786 0 255 255
-0.168669 -2.14314 0.41786 0 255 255
-0.175401 -2.1426 0.41786 0 255 255
-0.182131 -2.14204 0.41786 0 255 255
-0.190097 -2.1512 0.419768 0 255 255
-0.197749 -2.16037 0.421677 0 255 255
-0.204536 -2.15973 0.421677 0 255 255
-0.212276 -2.16885 0.423585 0 255 255
-0.219088 -2.16817 0.423585 0 255 255
-0.226916 -2.17724 0.425493 0 255 255
-0.234135 -2.17647 0.425493 0 255 255
-0.242052 -2.18548 0.427401 0 255 255
-0.250028 -2.19447 0.429309 0 255 255
-0.258062 -2.20342 0.431217 0 255 255
-0.263811 -2.19285 0.429309 0 255 255
-0.271902 -2.20175 0.431217 0 255 255
-0.280051 -2.21063 0.433125 0 255 255
-0.289523 -2.22921 0.436941 0 255 255
-0.497673 -3.64731 0.715514 0 255 255
-0.524064 -3.75267 0.736503 0 255 255
-0.537239 -3.76072 0.738411 0 255 255
-0.55047 -3.76873 0.740319 0 255 255
-0.560857 -3.75727 0.738411 0 255 255
-0.574139 -3.76519 0.740319 0 255 255
-0.585964 -3.76337 0.740319 0 255 255
-0.599325 -3.77121 0.742227 0 255 255
-0.61117 -3.76931 0.742227 0 255 255
-0.623008 -3.76737 0.742227 0 255 255
-0.636473 -3.77507 0.744135 0 255 255
-0.648988 -3.77294 0.744135 0 255 255
-0.660837 -3.77088 0.744135 0 255 255
-0.674405 -3.77845 0.746043 0 255 255
-0.686273 -3.77631 0.746043 0 255 255
-0.699918 -3.78379 0.747951 0 255 255
-0.709986 -3.77193 0.746043 0 255 255
-0.726186 -3.78883 0.749859 0 255 255
-0.738086 -3.78653 0.749859 0 255 255
-1.50377 -7.58765 1.50353 0 255 255
-1.5276 -7.58289 1.50353 0 255 255
-1.55339 -7.58767 1.50544 0 255 255
-1.57721 -7.58275 1.50544 0 255 255
-1.60306 -7.58736 1.50735 0 255 255
-1.62895 -7.59189 1.50926 0 255 255
-1.65279 -7.58673 1.50926 0 255 255
-1.67873 -7.59109 1.51117 0 255 255
-1.70175 -7.5759 1.50926 0 255 255
-1.72772 -7.58009 1.51117 0 255 255
-1.75506 -7.58388 1.51307 0 255 255
-1.7798 -7.5882 1.51498 0 255 255
-1.8059 -7.59212 1.51689 0 255 255
-1.83204 -7.59595 1.5188 0 255 255
-1.85356 -7.58062 1.51689 0 255 255
-1.88445 -7.60335 1.52261 0 255 255
-1.90966 -7.59705 1.52261 0 255 255
-1.93836 -7.61004 1.52643 0 255 255
-1.96226 -7.60392 1.52643 0 255 255
-1.98365 -7.58822 1.52452 0 255 255
-3.61297 -13.6456 2.74376 0 255 255
-3.65836 -13.6437 2.74567 0 255 255
-3.70359 -13.6315 2.74567 0 255 255
-3.749 -13.6292 2.74758 0 255 255
-3.7681 -13.5323 2.7304 0 255 255
-3.79728 -13.4731 2.72086 0 255 255
-3.82074 -13.3951 2.70751 0 255 255
-4.00244 -13.5467 2.74567 0 255 255
-4.14898 -13.8821 2.81627 0 255 255
-4.19826 -13.8878 2.82008 0 255 255
-4.24429 -13.8738 2.82008 0 255 255
-4.29075 -13.8697 2.82199 0 255 255
-4.33379 -13.8461 2.82008 0 255 255
-4.37781 -13.8425 2.82199 0 255 255
-4.42369 -13.8279 2.82199 0 255 255
-4.46711 -13.814 2.82199 0 255 255
-4.51049 -13.7999 2.82199 0 255 255
-4.55382 -13.7856 2.82199 0 255 255
-4.60021 -13.7806 2.8239 0 255 255
-4.64348 -13.766 2.8239 0 255 255
-4.68911 -13.7506 2.8239 0 255 255
-4.73228 -13.7358 2.8239 0 255 255
-4.73024 -13.591 2.79718 0 255 255
-4.77617 -13.5854 2.79909 0 255 255
-4.83196 -13.6073 2.80673 0 255 255
-4.88794 -13.629 2.81436 0 255 255
-4.94077 -13.6413 2.82008 0 255 255
-4.99371 -13.6533 2.8258 0 255 255
-5.03998 -13.6468 2.82771 0 255 255
-5.08969 -13.6493 2.83153 0 255 255
-5.13146 -13.6232 2.82962 0 255 255
-5.17773 -13.6161 2.83153 0 255 255
-5.21696 -13.5906 2.82962 0 255 255
-5.26318 -13.5833 2.83153 0 255 255
-5.31297 -13.585 2.83535 0 255 255
-5.35563 -13.5683 2.83535 0 255 255
-5.40186 -13.5605 2.83725 0 255 255
-5.44313 -13.5334 2.83535 0 255 255
-5.48931 -13.5253 2.83725 0 255 255
-5.52806 -13.4989 2.83535 0 255 255
-5.57419 -13.4906 2.83725 0 255 255
-5.6241 -13.4911 2.84107 0 255 255
-5.68167 -13.5096 2.8487 0 255 255
-5.71642 -13.4736 2.84489 0 255 255
-5.77266 -13.4816 2.85061 0 255 255
-5.81109 -13.4544 2.8487 0 255 255
-5.85725 -13.4451 2.85061 0 255 255
-5.89156 -13.4086 2.84679 0 255 255
-5.94161 -13.408 2.85061 0 255 255
-5.97169 -13.3624 2.84489 0 255 255
-1.9038 -3.98602 0.858617 0 255 255
-0.193264 -0.284059 0.066781 0 255 255
-0.160871 -0.234859 0.055333 0 255 255
-0.172754 -0.250514 0.059149 0 255 255
-0.17354 -0.24997 0.059149 0 255 255
-0.174368 -0.249394 0.059149 0 255 255
-0.175151 -0.248845 0.059149 0 255 255
-0.187282 -0.264312 0.062965 0 255 255
-0.17101 -0.239748 0.057241 0 255 255
-0.171763 -0.239209 0.057241 0 255 255
-0.172513 -0.238668 0.057241 0 255 255
-0.179038 -0.246063 0.059149 0 255 255
-0.168209 -0.22966 0.055333 0 255 255
-0.163105 -0.22123 0.053425 0 255 255
-0.169649 -0.228599 0.055333 0 255 255
-0.170366 -0.228065 0.055333 0 255 255
-0.171122 -0.227499 0.055333 0 255 255
-0.16591 -0.219134 0.053425 0 255 255
-0.172548 -0.226419 0.055333 0 255 255
-0.179232 -0.233665 0.057241 0 255 255
-0.173967 -0.22533 0.055333 0 255 255
-0.174674 -0.224783 0.055333 0 255 255
-0.175379 -0.224233 0.055333 0 255 255
-0.163939 -0.208255 0.051517 0 255 255
-0.176785 -0.223127 0.055333 0 255 255
-0.171365 -0.214895 0.053425 0 255 255
-0.172039 -0.214356 0.053425 0 255 255
-0.172711 -0.213814 0.053425 0 255 255
-0.185767 -0.228504 0.057241 0 255 255
-0.192741 -0.235483 0.059149 0 255 255
-0.180997 -0.219723 0.055333 0 255 255
-0.175421 -0.211597 0.053425 0 255 255
-0.188663 -0.226119 0.057241 0 255 255
-0.18306 -0.218008 0.055333 0 255 255
-0.190119 -0.224896 0.057241 0 255 255
-0.203546 -0.239251 0.061057 0 255 255
-0.197913 -0.231154 0.059149 0 255 255
-0.198638 -0.230531 0.059149 0 255 255
-0.218654 -0.252154 0.064873 0 255 255
-0.2259 -0.258862 0.066781 0 255 255
-0.226712 -0.258151 0.066781 0 255 255
-0.234022 -0.264793 0.068689 0 255 255
-0.241377 -0.271392 0.070597 0 255 255
-0.255321 -0.285261 0.074414 0 255 255
-0.256216 -0.284457 0.074414 0 255 255
-0.257109 -0.283651 0.074414 0 255 255
-0.271281 -0.297299 0.07823 0 255 255
-0.272214 -0.296445 0.07823 0 255 255
-0.279806 -0.302798 0.080138 0 255 255
-0.280756 -0.301918 0.080138 0 255 255
-0.28841 -0.308202 0.082046 0 255 255
-0.302836 -0.321587 0.085862 0 255 255
-0.303845 -0.320634 0.085862 0 255 255
-0.304907 -0.319624 0.085862 0 255 255
-0.305909 -0.318665 0.085862 0 255 255
-0.306909 -0.317702 0.085862 0 255 255
-0.307905 -0.316737 0.085862 0 255 255
-0.315763 -0.322785 0.08777 0 255 255
-0.309889 -0.314796 0.085862 0 255 255
-0.324694 -0.327768 0.089678 0 255 255
-0.325779 -0.32669 0.089678 0 255 255
-0.326803 -0.325665 0.089678 0 255 255
-0.32085 -0.317729 0.08777 0 255 255
-0.342836 -0.337375 0.093494 0 255 255
-0.343895 -0.336296 0.093494 0 255 255
-0.33791 -0.328373 0.091586 0 255 255
-0.353062 -0.340948 0.095402 0 255 255
-0.361214 -0.346634 0.09731 0 255 255
-0.355197 -0.338723 0.095402 0 255 255
-0.349134 -0.330853 0.093494 0 255 255
-0.357319 -0.336485 0.095402 0 255 255
-0.344039 -0.321946 0.091586 0 255 255
-0.366614 -0.340918 0.09731 0 255 255
-0.374893 -0.346426 0.099218 0 255 255
-0.375979 -0.345247 0.099218 0 255 255
-0.369811 -0.337447 0.09731 0 255 255
-0.363597 -0.32969 0.095402 0 255 255
-0.371982 -0.335052 0.09731 0 255 255
-0.380348 -0.340428 0.099218 0 255 255
-0.38875 -0.345756 0.101126 0 255 255
-0.375124 -0.331531 0.09731 0 255 255
-0.390915 -0.343306 0.101126 0 255 255
-0.384654 -0.335555 0.099218 0 255 255
-0.385706 -0.334345 0.099218 0 255 255
-0.379317 -0.326725 0.09731 0 255 255
-0.380342 -0.325532 0.09731 0 255 255
-0.373885 -0.317976 0.095402 0 255 255
-0.382379 -0.323136 0.09731 0 255 255
-0.39091 -0.328245 0.099218 0 255 255
-0.39194 -0.327016 0.099218 0 255 255
-0.385408 -0.319518 0.09731 0 255 255
-0.38641 -0.318305 0.09731 0 255 255
-0.372269 -0.30459 0.093494 0 255 255
-0.388457 -0.315803 0.09731 0 255 255
-0.381811 -0.308413 0.095402 0 255 255
-0.398089 -0.319501 0.099218 0 255 255
-0.391416 -0.312128 0.09731 0 255 255
-0.400089 -0.316993 0.099218 0 255 255
-0.377944 -0.297519 0.093494 0 255 255
-0.394341 -0.308425 0.09731 0 255 255
-0.387557 -0.301162 0.095402 0 255 255
-0.396271 -0.305941 0.09731 0 255 255
-0.389441 -0.298721 0.095402 0 255 255
-0.398185 -0.303446 0.09731 0 255 255
-0.39131 -0.296268 0.095402 0 255 255
-0.384394 -0.289136 0.093494 0 255 255
-0.401027 -0.299679 0.09731 0 255 255
-0.394085 -0.292567 0.095402 0 255 255
-0.395053 -0.291258 0.095402 0 255 255
-0.388047 -0.284216 0.093494 0 255 255
-0.396875 -0.28877 0.095402 0 255 255
-0.397781 -0.287522 0.095402 0 255 255
-0.406656 -0.291997 0.09731 0 255 255
-0.391588 -0.279317 0.093494 0 255 255
-0.400473 -0.283761 0.095402 0 255 255
-0.393335 -0.276851 0.093494 0 255 255
-0.394203 -0.275614 0.093494 0 255 255
-0.419255 -0.291173 0.099218 0 255 255
-0.404007 -0.278706 0.095402 0 255 255
-0.412978 -0.282984 0.09731 0 255 255
-0.413914 -0.281613 0.09731 0 255 255
-0.414797 -0.280311 0.09731 0 255 255
-0.415675 -0.279007 0.09731 0 255 255
-0.408382 -0.272254 0.095402 0 255 255
-0.425605 -0.281809 0.099218 0 255 255
-0.418287 -0.275077 0.09731 0 255 255
-0.41093 -0.268393 0.095402 0 255 255
-0.428242 -0.277785 0.099218 0 255 255
-0.429113 -0.276438 0.099218 0 255 255
-0.438248 -0.280379 0.101126 0 255 255
-0.439175 -0.278924 0.101126 0 255 255
-0.440049 -0.277543 0.101126 0 255 255
-0.4326 -0.270949 0.099218 0 255 255
-0.45012 -0.279957 0.103034 0 255 255
-0.442645 -0.273383 0.101126 0 255 255
-0.443502 -0.271991 0.101126 0 255 255
-0.452738 -0.275702 0.103034 0 255 255
-0.445202 -0.269199 0.101126 0 255 255
-0.462878 -0.277905 0.104942 0 255 255
-0.455317 -0.271423 0.103034 0 255 255
-0.456167 -0.269992 0.103034 0 255 255
-0.44855 -0.263584 0.101126 0 255 255
-0.449376 -0.262173 0.101126 0 255 255
-0.458692 -0.26568 0.103034 0 255 255
-0.45957 -0.264158 0.103034 0 255 255
-0.451872 -0.257848 0.101126 0 255 255
-0.45268 -0.256427 0.101126 0 255 255
-0.453483 -0.255003 0.101126 0 255 255
-0.44571 -0.248793 0.099218 0 255 255
-0.455076 -0.252149 0.101126 0 255 255
-0.447265 -0.245988 0.099218 0 255 255
-0.465268 -0.253988 0.103034 0 255 255
-0.457432 -0.247849 0.101126 0 255 255
-0.458209 -0.246411 0.101126 0 255 255
-0.459023 -0.24489 0.101126 0 255 255
-0.451115 -0.238853 0.099218 0 255 255
-0.460553 -0.242001 0.101126 0 255 255
-0.461311 -0.240553 0.101126 0 255 255
-0.453346 -0.234591 0.099218 0 255 255
-0.462813 -0.23765 0.101126 0 255 255
-0.454811 -0.231738 0.099218 0 255 255
-0.455537 -0.230308 0.099218 0 255 255
-0.465073 -0.233196 0.101126 0 255 255
-0.474592 -0.236106 0.103034 0 255 255
-0.457727 -0.225925 0.099218 0 255 255
-0.458434 -0.224485 0.099218 0 255 255
-0.45027 -0.218833 0.09731 0 255 255
-0.459797 -0.221681 0.099218 0 255 255
-0.46053 -0.220155 0.099218 0 255 255
-0.461219 -0.218707 0.099218 0 255 255
-0.470787 -0.221435 0.101126 0 255 255
-0.462584 -0.215805 0.099218 0 255 255
-0.472169 -0.218473 0.101126 0 255 255
-0.472853 -0.216988 0.101126 0 255 255
-0.464597 -0.211435 0.099218 0 255 255
-0.474207 -0.214013 0.101126 0 255 255
-0.474877 -0.212522 0.101126 0 255 255
-0.46657 -0.207047 0.099218 0 255 255
-0.467218 -0.205581 0.099218 0 255 255
-0.476859 -0.208037 0.101126 0 255 255
-0.477546 -0.206455 0.101126 0 255 255
-0.46917 -0.201086 0.099218 0 255 255
-0.478834 -0.20345 0.101126 0 255 255
-0.47947 -0.201945 0.101126 0 255 255
-0.489161 -0.204219 0.103034 0 255 255
-0.471659 -0.195175 0.099218 0 255 255
-0.481352 -0.197417 0.101126 0 255 255
-0.48197 -0.195904 0.101126 0 255 255
-0.482583 -0.194389 0.101126 0 255 255
-0.474075 -0.189232 0.099218 0 255 255
-0.474667 -0.187742 0.099218 0 255 255
-0.484394 -0.189832 0.101126 0 255 255
-0.475837 -0.184756 0.099218 0 255 255
-0.476415 -0.18326 0.099218 0 255 255
-0.486161 -0.185258 0.101126 0 255 255
-0.486741 -0.18373 0.101126 0 255 255
-0.49651 -0.185638 0.103034 0 255 255
-0.487917 -0.180583 0.101126 0 255 255
-0.488482 -0.179049 0.101126 0 255 255
-0.479815 -0.174164 0.099218 0 255 255
-0.489598 -0.175976 0.101126 0 255 255
-0.490148 -0.174437 0.101126 0 255 255
-0.490694 -0.172897 0.101126 0 255 255
-0.491234 -0.171354 0.101126 0 255 255
-0.482492 -0.166606 0.099218 0 255 255
-0.492301 -0.168264 0.101126 0 255 255
-0.492827 -0.166717 0.101126 0 255 255
-0.493349 -0.165168 0.101126 0 255 255
-0.484547 -0.16053 0.099218 0 255 255
-0.494377 -0.162065 0.101126 0 255 255
-0.494884 -0.160511 0.101126 0 255 255
-0.486038 -0.155956 0.099218 0 255 255
-0.486526 -0.154429 0.099218 0 255 255
-0.496374 -0.15584 0.101126 0 255 255
-0.487513 -0.151284 0.099218 0 255 255
-0.487986 -0.149751 0.099218 0 255 255
-0.488454 -0.148217 0.099218 0 255 255
-0.488917 -0.146682 0.099218 0 255 255
-0.489376 -0.145146 0.099218 0 255 255
-0.489829 -0.143607 0.099218 0 255 255
-0.490278 -0.142068 0.099218 0 255 255
-0.490722 -0.140527 0.099218 0 255 255
-0.481716 -0.136312 0.09731 0 255 255
-0.491595 -0.137441 0.099218 0 255 255
-0.492025 -0.135896 0.099218 0 255 255
-0.501919 -0.136933 0.101126 0 255 255
-0.492869 -0.132802 0.099218 0 255 255
-0.493283 -0.131253 0.099218 0 255 255
-0.493693 -0.129702 0.099218 0 255 255
-0.484596 -0.125686 0.09731 0 255 255
-0.494499 -0.126598 0.099218 0 255 255
-0.494894 -0.125044 0.099218 0 255 255
-0.495284 -0.123488 0.099218 0 255 255
-0.486138 -0.119587 0.09731 0 255 255
-0.496071 -0.120287 0.099218 0 255 255
-0.496447 -0.118728 0.099218 0 255 255
