ply
format ascii 1.0
element vertex 1286
property float x
property float y
property float z
property uchar red
property uchar green
property uchar blue
end_header
-1.88049 4.52204 -0.956539 0 255 255
-1.8588 4.50978 -0.952706 0 255 255
-1.83779 4.53957 -0.956539 0 255 255
-1.83448 4.57264 -0.96229 0 255 255
-1.78748 4.4963 -0.945038 0 255 255
-1.75254 4.4468 -0.933536 0 255 255
-1.74213 4.46142 -0.935453 0 255 255
-1.7281 4.46688 -0.935453 0 255 255
-1.82974 4.81682 -1.00638 0 255 255
-1.78349 4.73987 -0.989127 0 255 255
-1.71375 4.59831 -0.958456 0 255 255
-1.70269 4.61287 -0.960373 0 255 255
-1.94092 5.30955 -1.10414 0 255 255
-1.82067 5.02954 -1.04472 0 255 255
-1.72869 4.82273 -1.00063 0 255 255
-1.68727 4.75415 -0.985293 0 255 255
-1.67315 4.75913 -0.985293 0 255 255
-1.66465 4.7829 -0.989127 0 255 255
-1.64322 4.76955 -0.985293 0 255 255
-1.65991 4.86758 -1.00446 0 255 255
-1.66657 4.93787 -1.01788 0 255 255
-1.64483 4.92446 -1.01405 0 255 255
-1.64254 4.96659 -1.02171 0 255 255
-1.7124 5.23291 -1.07539 0 255 255
-1.73223 5.35031 -1.09839 0 255 255
-1.72739 5.39311 -1.10606 0 255 255
-1.71138 5.39821 -1.10606 0 255 255
-1.67679 5.34737 -1.09456 0 255 255
-1.65998 5.35262 -1.09456 0 255 255
-1.63165 5.32027 -1.08689 0 255 255
-1.63486 5.39112 -1.10031 0 255 255
-1.69402 5.65006 -1.15206 0 255 255
-1.57399 5.30691 -1.08114 0 255 255
-1.73729 5.99542 -1.21916 0 255 255
-1.5185 5.30264 -1.0773 0 255 255
-1.4858 5.25072 -1.0658 0 255 255
-1.50101 5.36878 -1.08881 0 255 255
-1.55991 5.64782 -1.1444 0 255 255
-1.45433 5.33077 -1.07922 0 255 255
-1.42992 5.30688 -1.07347 0 255 255
-1.42838 5.36826 -1.08497 0 255 255
-1.54721 5.88504 -1.18849 0 255 255
-1.39063 5.35788 -1.08114 0 255 255
-1.39328 5.43828 -1.09647 0 255 255
-1.48926 5.88984 -1.18657 0 255 255
-1.38381 5.54191 -1.11564 0 255 255
-1.46265 5.93695 -1.19424 0 255 255
-1.55293 6.38975 -1.28433 0 255 255
-1.53285 6.3946 -1.28433 0 255 255
-1.51726 6.41848 -1.28816 0 255 255
-1.49932 6.43278 -1.29008 0 255 255
-1.4857 6.46615 -1.29583 0 255 255
-1.47188 6.4995 -1.30158 0 255 255
-1.45045 6.49426 -1.29967 0 255 255
-1.43004 6.49879 -1.29967 0 255 255
-1.41377 6.52243 -1.3035 0 255 255
-1.39533 6.53644 -1.30542 0 255 255
-1.37276 6.53119 -1.3035 0 255 255
-1.35224 6.53547 -1.3035 0 255 255
-1.33284 6.53945 -1.3035 0 255 255
-1.31422 6.55323 -1.30542 0 255 255
-1.29248 6.55755 -1.30542 0 255 255
-1.27188 6.56158 -1.30542 0 255 255
-1.2524 6.56532 -1.30542 0 255 255
-1.23177 6.56922 -1.30542 0 255 255
-1.21113 6.57306 -1.30542 0 255 255
-1.19047 6.57684 -1.30542 0 255 255
-1.16923 6.57068 -1.3035 0 255 255
-1.15196 6.59365 -1.30733 0 255 255
-1.12959 6.58757 -1.30542 0 255 255
-1.10888 6.59108 -1.30542 0 255 255
-1.09092 6.60403 -1.30733 0 255 255
-1.07017 6.60742 -1.30733 0 255 255
-1.05095 6.62044 -1.30925 0 255 255
-1.02863 6.61401 -1.30733 0 255 255
-1.00785 6.61721 -1.30733 0 255 255
-0.985609 6.61064 -1.30542 0 255 255
-0.968825 6.63296 -1.30925 0 255 255
-0.945208 6.61654 -1.30542 0 255 255
-0.925775 6.62919 -1.30733 0 255 255
-0.906269 6.6418 -1.30925 0 255 255
-0.8854 6.64461 -1.30925 0 255 255
-0.868317 6.67656 -1.315 0 255 255
-0.265931 2.09331 -0.412136 0 255 255
-0.26056 2.10387 -0.414053 0 255 255
-0.252773 2.09493 -0.412136 0 255 255
-0.24619 2.09572 -0.412136 0 255 255
-0.208937 2.11948 -0.41597 0 255 255
-0.20321 2.1299 -0.417887 0 255 255
-0.478 6.78467 -1.32842 0 255 255
-0.328693 6.79354 -1.32842 0 255 255
-0.308091 6.78468 -1.3265 0 255 255
-0.244488 6.79709 -1.32842 0 255 255
-0.222165 6.7684 -1.32267 0 255 255
-0.09629 6.81062 -1.33034 0 255 255
0.009482 6.79166 -1.3265 0 255 255
0.178193 6.75988 -1.32075 0 255 255
0.263083 6.78657 -1.3265 0 255 255
0.307049 6.8142 -1.33225 0 255 255
0.347341 6.76313 -1.32267 0 255 255
0.412261 6.79881 -1.33034 0 255 255
0.433617 6.79748 -1.33034 0 255 255
0.455624 6.80588 -1.33225 0 255 255
0.516324 6.77202 -1.3265 0 255 255
0.538372 6.78014 -1.32842 0 255 255
0.559668 6.77842 -1.32842 0 255 255
1.23841 6.72771 -1.33609 0 255 255
1.27948 6.72002 -1.33609 0 255 255
1.75919 6.62083 -1.338 0 255 255
1.82673 6.62288 -1.34184 0 255 255
2.00807 6.55991 -1.33992 0 255 255
0.825254 2.21667 -0.461976 0 255 255
0.828376 2.20503 -0.460059 0 255 255
0.835299 2.20241 -0.460059 0 255 255
0.838704 2.19061 -0.458142 0 255 255
0.845582 2.18797 -0.458142 0 255 255
0.84494 2.16716 -0.454308 0 255 255
0.844557 2.14623 -0.450474 0 255 255
2.47419 6.23002 -1.30925 0 255 255
2.512 6.26777 -1.31884 0 255 255
2.53168 6.25984 -1.31884 0 255 255
2.54763 6.24277 -1.31692 0 255 255
2.56723 6.23474 -1.31692 0 255 255
2.5868 6.22664 -1.31692 0 255 255
2.60635 6.21848 -1.31692 0 255 255
2.62205 6.20123 -1.315 0 255 255
2.64429 6.20245 -1.31692 0 255 255
2.66376 6.19411 -1.31692 0 255 255
2.68711 6.19472 -1.31884 0 255 255
2.70263 6.17725 -1.31692 0 255 255
2.71698 6.16022 -1.315 0 255 255
2.74031 6.16063 -1.31692 0 255 255
2.75965 6.15199 -1.31692 0 255 255
2.77492 6.13434 -1.315 0 255 255
2.79825 6.13453 -1.31692 0 255 255
2.82161 6.13462 -1.31884 0 255 255
2.83674 6.11682 -1.31692 0 255 255
2.8601 6.11677 -1.31884 0 255 255
2.87511 6.09888 -1.31692 0 255 255
2.89426 6.08982 -1.31692 0 255 255
2.91656 6.09005 -1.31884 0 255 255
2.93141 6.07202 -1.31692 0 255 255
2.95477 6.07161 -1.31884 0 255 255
2.9695 6.05348 -1.31692 0 255 255
2.98851 6.04413 -1.31692 0 255 255
3.01185 6.04349 -1.31884 0 255 255
3.02977 6.03453 -1.31884 0 255 255
3.04872 6.02498 -1.31884 0 255 255
3.06317 6.00663 -1.31692 0 255 255
3.08203 5.99698 -1.31692 0 255 255
3.10085 5.98727 -1.31692 0 255 255
3.11965 5.97749 -1.31692 0 255 255
3.13737 5.96821 -1.31692 0 255 255
3.15151 5.94965 -1.315 0 255 255
3.17481 5.94838 -1.31692 0 255 255
3.19348 5.93838 -1.31692 0 255 255
3.21212 5.92832 -1.31692 0 255 255
3.23073 5.91819 -1.31692 0 255 255
3.24354 5.89998 -1.315 0 255 255
3.26206 5.88976 -1.315 0 255 255
3.28055 5.87949 -1.315 0 255 255
3.29901 5.86915 -1.315 0 255 255
3.31743 5.85876 -1.315 0 255 255
3.33581 5.84831 -1.315 0 255 255
3.35417 5.8378 -1.315 0 255 255
3.36758 5.81874 -1.31308 0 255 255
3.38584 5.80813 -1.31308 0 255 255
3.3991 5.789 -1.31117 0 255 255
3.41127 5.77044 -1.30925 0 255 255
3.42436 5.75126 -1.30733 0 255 255
3.44746 5.74889 -1.30925 0 255 255
3.46043 5.72963 -1.30733 0 255 255
3.47741 5.71934 -1.30733 0 255 255
3.49536 5.70839 -1.30733 0 255 255
3.50813 5.68902 -1.30542 0 255 255
3.52081 5.66964 -1.3035 0 255 255
3.5334 5.65023 -1.30158 0 255 255
3.55113 5.6391 -1.30158 0 255 255
3.56883 5.62792 -1.30158 0 255 255
3.58649 5.61668 -1.30158 0 255 255
3.59784 5.59775 -1.29967 0 255 255
3.61007 5.57819 -1.29775 0 255 255
3.62758 5.56681 -1.29775 0 255 255
3.64505 5.55539 -1.29775 0 255 255
3.65707 5.53572 -1.29583 0 255 255
3.67445 5.52421 -1.29583 0 255 255
3.68536 5.50513 -1.29392 0 255 255
3.69715 5.48538 -1.292 0 255 255
3.71437 5.47374 -1.292 0 255 255
3.72601 5.45394 -1.29008 0 255 255
3.74312 5.44221 -1.29008 0 255 255
3.75461 5.42235 -1.28816 0 255 255
3.77163 5.41053 -1.28816 0 255 255
3.79425 5.40669 -1.29008 0 255 255
3.81027 5.39541 -1.29008 0 255 255
3.82152 5.37541 -1.28816 0 255 255
3.83838 5.36338 -1.28816 0 255 255
3.84948 5.34333 -1.28625 0 255 255
3.86048 5.32327 -1.28433 0 255 255
3.87719 5.31111 -1.28433 0 255 255
3.88712 5.29167 -1.28242 0 255 255
3.89789 5.27154 -1.2805 0 255 255
3.90857 5.2514 -1.27858 0 255 255
3.92505 5.2391 -1.27858 0 255 255
3.93558 5.2189 -1.27666 0 255 255
3.95196 5.20651 -1.27666 0 255 255
3.96234 5.18627 -1.27475 0 255 255
3.97263 5.16602 -1.27283 0 255 255
3.98884 5.15351 -1.27283 0 255 255
3.99898 5.13321 -1.27091 0 255 255
4.01419 5.12133 -1.27091 0 255 255
4.02418 5.10098 -1.269 0 255 255
4.04629 5.096 -1.27091 0 255 255
4.05002 5.06793 -1.26708 0 255 255
4.05977 5.04753 -1.26516 0 255 255
4.07561 5.03476 -1.26516 0 255 255
4.08521 5.01432 -1.26324 0 255 255
4.10094 5.00146 -1.26324 0 255 255
4.10952 4.9817 -1.26133 0 255 255
4.12515 4.96876 -1.26133 0 255 255
4.12815 4.94072 -1.2575 0 255 255
4.13102 4.9127 -1.25366 0 255 255
4.13375 4.88471 -1.24983 0 255 255
4.14908 4.8717 -1.24983 0 255 255
4.16351 4.85937 -1.24983 0 255 255
4.17235 4.83883 -1.24791 0 255 255
4.17466 4.81088 -1.24408 0 255 255
4.18976 4.79774 -1.24408 0 255 255
4.1975 4.77791 -1.24216 0 255 255
4.20599 4.75735 -1.24024 0 255 255
4.22091 4.74411 -1.24024 0 255 255
4.22925 4.72352 -1.23832 0 255 255
4.23093 4.69562 -1.23449 0 255 255
4.24566 4.68231 -1.23449 0 255 255
4.26035 4.66895 -1.23449 0 255 255
4.26836 4.64831 -1.23258 0 255 255
4.27547 4.62842 -1.23066 0 255 255
4.28999 4.61496 -1.23066 0 255 255
4.29776 4.5943 -1.22874 0 255 255
4.31217 4.58077 -1.22874 0 255 255
4.31979 4.56007 -1.22682 0 255 255
4.32732 4.53938 -1.22491 0 255 255
4.34157 4.52576 -1.22491 0 255 255
4.35576 4.5121 -1.22491 0 255 255
4.36308 4.49135 -1.22299 0 255 255
4.37031 4.4706 -1.22107 0 255 255
4.38433 4.45685 -1.22107 0 255 255
4.3914 4.43608 -1.21916 0 255 255
4.38377 4.40217 -1.21341 0 255 255
4.39063 4.38144 -1.21149 0 255 255
4.40437 4.36763 -1.21149 0 255 255
4.41108 4.34688 -1.20957 0 255 255
4.41771 4.32614 -1.20765 0 255 255
4.42424 4.30539 -1.20574 0 255 255
4.43774 4.29147 -1.20574 0 255 255
4.44413 4.27071 -1.20382 0 255 255
4.45678 4.2575 -1.20382 0 255 255
4.46302 4.23672 -1.2019 0 255 255
4.46916 4.21595 -1.19999 0 255 255
4.48239 4.20189 -1.19999 0 255 255
4.49556 4.18778 -1.19999 0 255 255
4.49429 4.16031 -1.19615 0 255 255
4.50734 4.14616 -1.19615 0 255 255
4.5131 4.12536 -1.19424 0 255 255
4.51877 4.10457 -1.19232 0 255 255
4.52436 4.08377 -1.1904 0 255 255
4.53646 4.07033 -1.1904 0 255 255
4.5419 4.04953 -1.18849 0 255 255
4.54725 4.02873 -1.18657 0 255 255
4.55988 4.01443 -1.18657 0 255 255
4.56509 3.99362 -1.18465 0 255 255
4.58502 3.98569 -1.18657 0 255 255
4.57454 3.95282 -1.18082 0 255 255
4.59439 3.94482 -1.18273 0 255 255
4.59929 3.924 -1.18082 0 255 255
4.60411 3.90319 -1.1789 0 255 255
4.61635 3.8887 -1.1789 0 255 255
4.62102 3.86788 -1.17698 0 255 255
4.63314 3.85335 -1.17698 0 255 255
4.66792 3.85753 -1.18273 0 255 255
2.8516 2.34233 -0.720759 0 255 255
2.85134 2.32715 -0.718842 0 255 255
2.84339 2.30582 -0.715008 0 255 255
2.85062 2.29688 -0.715008 0 255 255
4.7822 3.73089 -1.18465 0 255 255
4.84195 3.40298 -1.1559 0 255 255
4.87506 3.16107 -1.13481 0 255 255
4.86847 3.13511 -1.13098 0 255 255
4.86176 3.10922 -1.12715 0 255 255
4.7638 3.02553 -1.10222 0 255 255
4.11702 2.59765 -0.950789 0 255 255
4.05031 2.5378 -0.933536 0 255 255
4.09993 2.55099 -0.943121 0 255 255
4.11627 2.54325 -0.945038 0 255 255
4.22403 2.55514 -0.964207 0 255 255
4.17314 2.50649 -0.950789 0 255 255
4.83859 2.8661 -1.09839 0 255 255
4.85603 2.85586 -1.10031 0 255 255
4.88193 2.85048 -1.10414 0 255 255
4.88237 2.83021 -1.10222 0 255 255
4.89123 2.81486 -1.10222 0 255 255
4.9171 2.80921 -1.10606 0 255 255
4.95176 2.78789 -1.10989 0 255 255
4.2237 2.36055 -0.945038 0 255 255
4.15102 2.26886 -0.923952 0 255 255
4.14088 2.24644 -0.920118 0 255 255
4.11335 2.21481 -0.91245 0 255 255
4.12894 2.2065 -0.914367 0 255 255
4.1268 2.18964 -0.91245 0 255 255
4.14234 2.18124 -0.914367 0 255 255
4.14918 2.16822 -0.914367 0 255 255
4.16468 2.15969 -0.916284 0 255 255
4.17145 2.14659 -0.916284 0 255 255
4.19565 2.14241 -0.920118 0 255 255
4.2195 2.13882 -0.923952 0 255 255
5.18939 2.56927 -1.13098 0 255 255
5.22386 2.56593 -1.13673 0 255 255
5.22307 2.54521 -1.13481 0 255 255
5.22221 2.52451 -1.13289 0 255 255
5.25666 2.52083 -1.13865 0 255 255
5.23797 2.49165 -1.13289 0 255 255
4.50018 2.12338 -0.971875 0 255 255
4.53312 2.12251 -0.977625 0 255 255
4.50416 2.09172 -0.969958 0 255 255
4.49288 2.06935 -0.966124 0 255 255
4.34488 1.96818 -0.931619 0 255 255
4.40475 1.97865 -0.943121 0 255 255
4.45578 1.98477 -0.952706 0 255 255
4.45301 1.9668 -0.950789 0 255 255
4.45917 1.9528 -0.950789 0 255 255
4.47428 1.94269 -0.952706 0 255 255
4.48003 1.9294 -0.952706 0 255 255
4.47399 1.89357 -0.948872 0 255 255
4.48896 1.8833 -0.950789 0 255 255
4.49486 1.86919 -0.950789 0 255 255
4.50978 1.8588 -0.952706 0 255 255
4.57011 1.86689 -0.964207 0 255 255
4.85797 1.96669 -1.02363 0 255 255
4.87324 1.95508 -1.02555 0 255 255
4.87023 1.93613 -1.02363 0 255 255
4.87629 1.92082 -1.02363 0 255 255
4.8823 1.90549 -1.02363 0 255 255
4.88826 1.89015 -1.02363 0 255 255
4.89418 1.87478 -1.02363 0 255 255
4.9089 1.86373 -1.02555 0 255 255
4.92391 1.85176 -1.02746 0 255 255
4.92971 1.83628 -1.02746 0 255 255
4.94466 1.82418 -1.02938 0 255 255
4.95036 1.80864 -1.02938 0 255 255
4.96525 1.79641 -1.0313 0 255 255
4.98011 1.78412 -1.03322 0 255 255
4.99494 1.77175 -1.03513 0 255 255
5.019 1.76255 -1.03897 0 255 255
5.04305 1.75322 -1.0428 0 255 255
5.0671 1.74375 -1.04663 0 255 255
5.10042 1.73732 -1.05238 0 255 255
5.13345 1.73159 -1.05814 0 255 255
5.17611 1.72788 -1.0658 0 255 255
5.40517 1.7855 -1.11181 0 255 255
5.40143 1.76546 -1.10989 0 255 255
5.42562 1.75452 -1.11373 0 255 255
5.43111 1.73747 -1.11373 0 255 255
5.42718 1.71743 -1.11181 0 255 255
5.42318 1.69745 -1.10989 0 255 255
5.42849 1.6804 -1.10989 0 255 255
5.43374 1.66334 -1.10989 0 255 255
5.43894 1.64626 -1.10989 0 255 255
5.43468 1.62635 -1.10798 0 255 255
5.43948 1.61022 -1.10798 0 255 255
5.4351 1.59036 -1.10606 0 255 255
5.44949 1.57601 -1.10798 0 255 255
5.44498 1.55618 -1.10606 0 255 255
5.44984 1.53907 -1.10606 0 255 255
5.45465 1.52194 -1.10606 0 255 255
5.53987 1.50826 -1.12139 0 255 255
5.52078 1.46587 -1.11564 0 255 255
5.5251 1.44948 -1.11564 0 255 255
5.52038 1.42869 -1.11373 0 255 255
5.54386 1.4162 -1.11756 0 255 255
5.58634 1.40838 -1.12523 0 255 255
5.82859 1.45107 -1.17315 0 255 255
5.63729 1.36589 -1.13289 0 255 255
5.72746 1.3687 -1.15015 0 255 255
5.76995 1.35971 -1.15781 0 255 255
5.75507 1.33713 -1.15398 0 255 255
5.74011 1.31466 -1.15015 0 255 255
5.74421 1.29662 -1.15015 0 255 255
5.73867 1.27644 -1.14823 0 255 255
5.77142 1.26471 -1.15398 0 255 255
5.70821 1.23207 -1.14056 0 255 255
5.72165 1.21617 -1.14248 0 255 255
5.73484 1.20121 -1.1444 0 255 255
5.72897 1.1812 -1.14248 0 255 255
5.74227 1.16515 -1.1444 0 255 255
5.79403 1.15671 -1.15398 0 255 255
5.788 1.13661 -1.15206 0 255 255
5.77227 1.1147 -1.14823 0 255 255
5.77574 1.09656 -1.14823 0 255 255
5.81775 1.08561 -1.1559 0 255 255
5.87906 1.07795 -1.1674 0 255 255
5.85344 1.05425 -1.16165 0 255 255
5.85672 1.03586 -1.16165 0 255 255
5.75358 0.998986 -1.14056 0 255 255
5.76636 0.982556 -1.14248 0 255 255
5.76942 0.964434 -1.14248 0 255 255
5.82085 0.954244 -1.15206 0 255 255
5.91103 0.949969 -1.16932 0 255 255
5.89443 0.929368 -1.16548 0 255 255
5.90702 0.912345 -1.1674 0 255 255
5.86134 0.886443 -1.15781 0 255 255
5.93205 0.878086 -1.17123 0 255 255
5.81822 0.842567 -1.14823 0 255 255
5.82084 0.824283 -1.14823 0 255 255
5.85257 0.81003 -1.15398 0 255 255
5.91344 0.799528 -1.16548 0 255 255
6.0035 0.792507 -1.18273 0 255 255
6.04489 0.77866 -1.1904 0 255 255
6.08626 0.764557 -1.19807 0 255 255
5.85483 0.716809 -1.15206 0 255 255
2.93467 0.238697 -0.575074 0 255 255
2.79842 0.218766 -0.548237 0 255 255
2.89697 0.217315 -0.567406 0 255 255
2.91722 0.209621 -0.57124 0 255 255
2.91786 0.200455 -0.57124 0 255 255
2.90923 0.182014 -0.569323 0 255 255
2.88043 0.170623 -0.563572 0 255 255
2.87115 0.161026 -0.561655 0 255 255
2.87164 0.152004 -0.561655 0 255 255
2.8427 0.141518 -0.555905 0 255 255
2.86274 0.133501 -0.559738 0 255 255
2.85332 0.124579 -0.557822 0 255 255
2.78505 0.112834 -0.544403 0 255 255
2.82462 0.105549 -0.552071 0 255 255
2.86417 0.098018 -0.559738 0 255 255
2.85466 0.088713 -0.557822 0 255 255
2.82549 0.078923 -0.552071 0 255 255
2.81591 0.069804 -0.550154 0 255 255
2.81612 0.060956 -0.550154 0 255 255
2.80648 0.051928 -0.548237 0 255 255
2.787 0.042808 -0.544403 0 255 255
2.7675 0.033813 -0.540569 0 255 255
2.76765 0.016424 -0.540569 0 255 255
2.74806 0.007674 -0.536736 0 255 255
2.73826 -0.000956 -0.534819 0 255 255
2.73824 -0.009558 -0.534819 0 255 255
2.74802 -0.017746 -0.536736 0 255 255
2.73813 -0.026763 -0.534819 0 255 255
2.7184 -0.035111 -0.530985 0 255 255
2.70847 -0.043494 -0.529068 0 255 255
2.65925 -0.05106 -0.519483 0 255 255
2.71795 -0.06073 -0.530985 0 255 255
2.71776 -0.068794 -0.530985 0 255 255
2.70772 -0.077052 -0.529068 0 255 255
2.69765 -0.085249 -0.527151 0 255 255
2.68757 -0.093382 -0.525234 0 255 255
2.67745 -0.101453 -0.523317 0 255 255
2.67712 -0.109864 -0.523317 0 255 255
2.65715 -0.117408 -0.519483 0 255 255
2.63716 -0.124827 -0.515649 0 255 255
2.63676 -0.133111 -0.515649 0 255 255
2.62607 -0.149119 -0.513733 0 255 255
2.60599 -0.156194 -0.509899 0 255 255
2.60549 -0.16438 -0.509899 0 255 255
2.61475 -0.173213 -0.511816 0 255 255
2.60441 -0.180748 -0.509899 0 255 255
2.59404 -0.188218 -0.507982 0 255 255
2.58368 -0.195175 -0.506065 0 255 255
2.58306 -0.203291 -0.506065 0 255 255
2.56284 -0.209803 -0.502231 0 255 255
2.58173 -0.219517 -0.506065 0 255 255
2.5908 -0.228488 -0.507982 0 255 255
2.5803 -0.235734 -0.506065 0 255 255
2.56977 -0.242915 -0.504148 0 255 255
2.57876 -0.251941 -0.506065 0 255 255
2.55843 -0.258071 -0.502231 0 255 255
2.55761 -0.266108 -0.502231 0 255 255
2.52748 -0.271002 -0.49648 0 255 255
2.53637 -0.280018 -0.498397 0 255 255
2.51598 -0.28577 -0.494563 0 255 255
2.47607 -0.28912 -0.486896 0 255 255
2.51413 -0.301572 -0.494563 0 255 255
2.5424 -0.313068 -0.500314 0 255 255
2.52192 -0.318593 -0.49648 0 255 255
2.54038 -0.329036 -0.500314 0 255 255
2.51014 -0.333141 -0.494563 0 255 255
2.53826 -0.344991 -0.500314 0 255 255
2.508 -0.348906 -0.494563 0 255 255
2.51661 -0.358167 -0.49648 0 255 255
2.49611 -0.362808 -0.492647 0 255 255
2.52402 -0.375416 -0.498397 0 255 255
2.4549 -0.373022 -0.484979 0 255 255
2.47312 -0.383743 -0.488813 0 255 255
2.45135 -0.395715 -0.484979 0 255 255
2.43072 -0.400225 -0.481145 0 255 255
2.42946 -0.407859 -0.481145 0 255 255
2.43783 -0.417145 -0.483062 0 255 255
2.42684 -0.423116 -0.481145 0 255 255
2.41584 -0.429022 -0.479228 0 255 255
2.41448 -0.436609 -0.479228 0 255 255
2.40337 -0.442835 -0.477311 0 255 255
2.38267 -0.446766 -0.473477 0 255 255
2.35241 -0.448321 -0.467727 0 255 255
2.38953 -0.46318 -0.475394 0 255 255
2.3977 -0.472582 -0.477311 0 255 255
2.38657 -0.478184 -0.475394 0 255 255
2.35621 -0.479804 -0.469644 0 255 255
2.39157 -0.502675 -0.477311 0 255 255
2.38038 -0.508136 -0.475394 0 255 255
5.09325 -1.10399 -1.01788 0 255 255
5.1952 -1.14319 -1.03897 0 255 255
5.17242 -1.15523 -1.03513 0 255 255
5.21663 -1.18232 -1.04472 0 255 255
5.68157 -1.30647 -1.13865 0 255 255
5.70611 -1.331 -1.1444 0 255 255
5.67325 -1.34214 -1.13865 0 255 255
5.4495 -1.3073 -1.09456 0 255 255
5.59795 -1.36153 -1.12523 0 255 255
5.68893 -1.4026 -1.1444 0 255 255
5.6845 -1.42047 -1.1444 0 255 255
5.68001 -1.43832 -1.1444 0 255 255
5.68497 -1.45859 -1.14631 0 255 255
2.97316 -0.772789 -0.599994 0 255 255
2.97072 -0.782126 -0.599994 0 255 255
2.95877 -0.788926 -0.598077 0 255 255
2.94694 -0.795145 -0.59616 0 255 255
2.94428 -0.804913 -0.59616 0 255 255
2.94174 -0.814158 -0.59616 0 255 255
2.93917 -0.823396 -0.59616 0 255 255
2.92712 -0.829948 -0.594243 0 255 255
2.9245 -0.83914 -0.594243 0 255 255
2.922 -0.847814 -0.594243 0 255 255
2.9099 -0.854225 -0.592326 0 255 255
2.90721 -0.863362 -0.592326 0 255 255
2.90448 -0.872491 -0.592326 0 255 255
2.89233 -0.878758 -0.590409 0 255 255
2.88956 -0.887841 -0.590409 0 255 255
2.87738 -0.894002 -0.588492 0 255 255
2.87456 -0.903037 -0.588492 0 255 255
2.87171 -0.912063 -0.588492 0 255 255
2.86883 -0.921081 -0.588492 0 255 255
2.85659 -0.927059 -0.586575 0 255 255
2.86299 -0.939088 -0.588492 0 255 255
2.84139 -0.941901 -0.584658 0 255 255
2.84772 -0.95394 -0.586575 0 255 255
2.85401 -0.966029 -0.588492 0 255 255
2.86025 -0.978166 -0.590409 0 255 255
2.85699 -0.987645 -0.590409 0 255 255
2.85387 -0.996616 -0.590409 0 255 255
2.84164 -1.00182 -0.588492 0 255 255
2.84773 -1.01403 -0.590409 0 255 255
2.83529 -1.01965 -0.588492 0 255 255
2.8413 -1.0319 -0.590409 0 255 255
2.82883 -1.03744 -0.588492 0 255 255
2.82556 -1.04633 -0.588492 0 255 255
2.84064 -1.06207 -0.592326 0 255 255
2.83729 -1.07099 -0.592326 0 255 255
2.82474 -1.07641 -0.590409 0 255 255
2.81219 -1.08175 -0.588492 0 255 255
2.80877 -1.09058 -0.588492 0 255 255
2.81447 -1.10298 -0.590409 0 255 255
2.81099 -1.11182 -0.590409 0 255 255
2.78926 -1.11337 -0.586575 0 255 255
2.79485 -1.12579 -0.588492 0 255 255
2.7913 -1.13456 -0.588492 0 255 255
2.78772 -1.14333 -0.588492 0 255 255
2.77504 -1.14833 -0.586575 0 255 255
2.78048 -1.16082 -0.588492 0 255 255
2.76778 -1.16574 -0.586575 0 255 255
2.77313 -1.17827 -0.588492 0 255 255
2.76942 -1.18697 -0.588492 0 255 255
2.76547 -1.19615 -0.588492 0 255 255
2.76169 -1.20483 -0.588492 0 255 255
2.75789 -1.2135 -0.588492 0 255 255
2.75407 -1.22216 -0.588492 0 255 255
2.75043 -1.23033 -0.588492 0 255 255
2.74655 -1.23896 -0.588492 0 255 255
2.74265 -1.24758 -0.588492 0 255 255
2.73871 -1.25619 -0.588492 0 255 255
2.73475 -1.26479 -0.588492 0 255 255
2.73054 -1.27385 -0.588492 0 255 255
2.72653 -1.28243 -0.588492 0 255 255
2.72249 -1.29098 -0.588492 0 255 255
2.7275 -1.30329 -0.590409 0 255 255
2.71455 -1.30759 -0.588492 0 255 255
2.71926 -1.3204 -0.590409 0 255 255
2.70628 -1.32462 -0.588492 0 255 255
2.70211 -1.33312 -0.588492 0 255 255
2.6979 -1.3416 -0.588492 0 255 255
2.69368 -1.35007 -0.588492 0 255 255
2.69794 -1.36342 -0.590409 0 255 255
2.6849 -1.36743 -0.588492 0 255 255
2.68059 -1.37586 -0.588492 0 255 255
2.67626 -1.38428 -0.588492 0 255 255
2.6719 -1.39268 -0.588492 0 255 255
2.66751 -1.40107 -0.588492 0 255 255
2.66309 -1.40944 -0.588492 0 255 255
2.6589 -1.41734 -0.588492 0 255 255
2.65418 -1.42614 -0.588492 0 255 255
2.65832 -1.43915 -0.590409 0 255 255
2.64517 -1.44279 -0.588492 0 255 255
2.64088 -1.45063 -0.588492 0 255 255
2.6449 -1.46368 -0.590409 0 255 255
2.63171 -1.4672 -0.588492 0 255 255
2.63539 -1.48073 -0.590409 0 255 255
2.62218 -1.48416 -0.588492 0 255 255
2.60045 -1.48267 -0.584658 0 255 255
2.60455 -1.49527 -0.586575 0 255 255
4.87643 -2.84043 -1.10222 0 255 255
4.86698 -2.85658 -1.10222 0 255 255
4.84109 -2.86187 -1.09839 0 255 255
4.9164 -2.92728 -1.11756 0 255 255
5.02502 -3.01337 -1.1444 0 255 255
5.01553 -3.02914 -1.1444 0 255 255
4.98922 -3.03468 -1.14056 0 255 255
5.00477 -3.06572 -1.14631 0 255 255
4.84368 -3.00906 -1.11373 0 255 255
4.80092 -3.00344 -1.10606 0 255 255
4.78316 -3.01328 -1.10414 0 255 255
4.76538 -3.02304 -1.10222 0 255 255
4.76413 -3.04328 -1.10414 0 255 255
4.70502 -3.02637 -1.09264 0 255 255
4.67078 -3.02513 -1.08689 0 255 255
4.62014 -3.01298 -1.0773 0 255 255
4.42814 -2.94762 -1.03897 0 255 255
4.3781 -2.9342 -1.02938 0 255 255
4.39326 -2.96441 -1.03513 0 255 255
4.82821 -3.30223 -1.14248 0 255 255
4.76931 -3.28399 -1.13098 0 255 255
4.8235 -3.34369 -1.14631 0 255 255
3.95916 -2.78151 -0.945038 0 255 255
3.95041 -2.79394 -0.945038 0 255 255
4.16411 -2.98451 -1.00063 0 255 255
4.68249 -3.4233 -1.13289 0 255 255
4.54523 -3.34492 -1.10222 0 255 255
4.57413 -3.38839 -1.11181 0 255 255
4.65001 -3.46728 -1.13289 0 255 255
4.64695 -3.48776 -1.13481 0 255 255
4.31771 -3.30472 -1.06197 0 255 255
4.29953 -3.31228 -1.06005 0 255 255
4.02059 -3.15935 -0.998711 0 255 255
3.97986 -3.14761 -0.991044 0 255 255
4.44663 -3.58542 -1.11564 0 255 255
4.41248 -3.58082 -1.10989 0 255 255
4.45442 -3.63812 -1.12331 0 255 255
4.43539 -3.64586 -1.12139 0 255 255
4.42455 -3.65901 -1.12139 0 255 255
4.41239 -3.67366 -1.12139 0 255 255
4.41587 -3.70011 -1.12523 0 255 255
4.41173 -3.72029 -1.12715 0 255 255
3.92669 -3.39661 -1.01405 0 255 255
3.90859 -3.40248 -1.01213 0 255 255
4.28469 -3.77746 -1.11564 0 255 255
4.19204 -3.71925 -1.09456 0 255 255
4.22426 -3.77162 -1.10606 0 255 255
4.3 -3.86359 -1.12906 0 255 255
4.29512 -3.88366 -1.13098 0 255 255
4.29016 -3.90374 -1.13289 0 255 255
4.24892 -3.89069 -1.12523 0 255 255
4.21502 -3.88406 -1.11948 0 255 255
4.20999 -3.90396 -1.12139 0 255 255
3.81635 -3.60642 -1.02555 0 255 255
3.805 -3.61839 -1.02555 0 255 255
4.07379 -3.94778 -1.10798 0 255 255
4.06137 -3.96056 -1.10798 0 255 255
4.11196 -4.03517 -1.12523 0 255 255
4.13418 -4.08255 -1.13481 0 255 255
4.14242 -4.14387 -1.1444 0 255 255
4.14321 -4.17078 -1.14823 0 255 255
4.13699 -4.19076 -1.15015 0 255 255
3.63294 -3.75022 -1.0198 0 255 255
3.60753 -3.74747 -1.01596 0 255 255
3.60252 -3.76588 -1.01788 0 255 255
4.04383 -4.28072 -1.15015 0 255 255
3.95648 -4.21469 -1.12906 0 255 255
3.99677 -4.28451 -1.1444 0 255 255
4.00331 -4.31864 -1.15015 0 255 255
4.00302 -4.34564 -1.15398 0 255 255
3.7577 -4.13111 -1.09072 0 255 255
3.69864 -4.09193 -1.0773 0 255 255
3.39967 -3.85888 -1.00446 0 255 255
3.38106 -3.86215 -1.00254 0 255 255
3.78576 -4.40757 -1.13481 0 255 255
3.81012 -4.46423 -1.14631 0 255 255
3.80877 -4.49115 -1.15015 0 255 255
3.78832 -4.49559 -1.14823 0 255 255
3.77418 -4.50747 -1.14823 0 255 255
3.76627 -4.52685 -1.15015 0 255 255
3.75203 -4.53866 -1.15015 0 255 255
3.73153 -4.54284 -1.14823 0 255 255
2.94255 -3.62856 -0.91245 0 255 255
3.1465 -3.95569 -0.98721 0 255 255
3.1584 -3.99636 -0.994878 0 255 255
3.61861 -4.60835 -1.1444 0 255 255
3.57393 -4.58101 -1.13481 0 255 255
3.60161 -4.64651 -1.14823 0 255 255
3.60496 -4.68113 -1.15398 0 255 255
3.57831 -4.67685 -1.15015 0 255 255
3.56278 -4.68869 -1.15015 0 255 255
3.54803 -4.69985 -1.15015 0 255 255
3.52736 -4.70313 -1.14823 0 255 255
3.48325 -4.67484 -1.13865 0 255 255
3.00481 -4.11308 -0.994878 0 255 255
2.99187 -4.1225 -0.994878 0 255 255
3.3853 -4.7583 -1.14056 0 255 255
3.34201 -4.72883 -1.13098 0 255 255
3.29894 -4.69914 -1.12139 0 255 255
3.28977 -4.71754 -1.12331 0 255 255
3.27494 -4.72785 -1.12331 0 255 255
3.28232 -4.77046 -1.13098 0 255 255
2.92447 -4.33734 -1.02171 0 255 255
2.91629 -4.35466 -1.02363 0 255 255
3.19731 -4.87486 -1.13865 0 255 255
3.1177 -4.7862 -1.11564 0 255 255
3.1453 -4.86189 -1.13098 0 255 255
3.10348 -4.83046 -1.12139 0 255 255
3.08829 -4.84019 -1.12139 0 255 255
3.08358 -4.86645 -1.12523 0 255 255
2.83496 -4.57055 -1.05047 0 255 255
2.82059 -4.57943 -1.05047 0 255 255
2.42566 -3.99265 -0.91245 0 255 255
2.40296 -3.98344 -0.908617 0 255 255
2.31479 -3.86467 -0.879863 0 255 255
2.82341 -4.81817 -1.09072 0 255 255
2.77836 -4.81032 -1.08497 0 255 255
2.75431 -4.80151 -1.08114 0 255 255
2.74322 -4.81915 -1.08306 0 255 255
2.73111 -4.90481 -1.09647 0 255 255
2.72043 -4.92196 -1.09839 0 255 255
2.70496 -4.93048 -1.09839 0 255 255
2.68945 -4.93896 -1.09839 0 255 255
2.66926 -4.93875 -1.09647 0 255 255
2.66301 -4.96441 -1.10031 0 255 255
2.6474 -4.97275 -1.10031 0 255 255
2.63176 -4.98104 -1.10031 0 255 255
2.62434 -5.00712 -1.10414 0 255 255
2.63577 -5.06759 -1.11564 0 255 255
2.5984 -5.15289 -1.12715 0 255 255
2.56902 -5.1347 -1.12139 0 255 255
2.53979 -5.11637 -1.11564 0 255 255
2.52804 -5.13313 -1.11756 0 255 255
2.50759 -5.13223 -1.11564 0 255 255
2.49573 -5.14891 -1.11756 0 255 255
2.47955 -5.15672 -1.11756 0 255 255
2.47179 -5.18221 -1.12139 0 255 255
2.45969 -5.19882 -1.12331 0 255 255
2.44752 -5.2154 -1.12523 0 255 255
2.44354 -5.24976 -1.13098 0 255 255
1.58113 -3.45349 -0.741845 0 255 255
1.59462 -3.51206 -0.753347 0 255 255
1.59505 -3.54418 -0.759097 0 255 255
1.5839 -3.54917 -0.759097 0 255 255
1.56481 -3.53618 -0.755264 0 255 255
1.55369 -3.54108 -0.755264 0 255 255
1.54255 -3.54594 -0.755264 0 255 255
1.53141 -3.55077 -0.755264 0 255 255
1.51253 -3.53751 -0.75143 0 255 255
1.50524 -3.55129 -0.753347 0 255 255
1.49027 -3.54695 -0.75143 0 255 255
1.47912 -3.55161 -0.75143 0 255 255
1.46047 -3.5381 -0.747596 0 255 255
1.45306 -3.55175 -0.749513 0 255 255
1.43759 -3.54746 -0.747596 0 255 255
1.42644 -3.55195 -0.747596 0 255 255
1.41164 -3.5473 -0.745679 0 255 255
1.40471 -3.5606 -0.747596 0 255 255
1.38575 -3.54696 -0.743762 0 255 255
1.37815 -3.56045 -0.745679 0 255 255
1.35993 -3.54643 -0.741845 0 255 255
1.34878 -3.55068 -0.741845 0 255 255
1.33762 -3.5549 -0.741845 0 255 255
1.32301 -3.54989 -0.739928 0 255 255
1.31186 -3.55403 -0.739928 0 255 255
1.30068 -3.55814 -0.739928 0 255 255
1.2895 -3.5622 -0.739928 0 255 255
1.27499 -3.557 -0.738011 0 255 255
1.26319 -3.56121 -0.738011 0 255 255
1.25199 -3.56516 -0.738011 0 255 255
1.24016 -3.56929 -0.738011 0 255 255
1.22575 -3.56389 -0.736094 0 255 255
1.21455 -3.56772 -0.736094 0 255 255
1.20396 -3.57131 -0.736094 0 255 255
1.18963 -3.56576 -0.734177 0 255 255
1.17842 -3.56948 -0.734177 0 255 255
1.1672 -3.57317 -0.734177 0 255 255
1.15295 -3.56748 -0.732261 0 255 255
1.14174 -3.57108 -0.732261 0 255 255
1.12755 -3.56529 -0.730344 0 255 255
1.11928 -3.57819 -0.732261 0 255 255
1.10513 -3.57231 -0.730344 0 255 255
1.0939 -3.57576 -0.730344 0 255 255
1.08266 -3.57918 -0.730344 0 255 255
1.06798 -3.57335 -0.728427 0 255 255
1.05397 -3.56727 -0.72651 0 255 255
1.04551 -3.57999 -0.728427 0 255 255
1.03153 -3.57382 -0.72651 0 255 255
1.0203 -3.57705 -0.72651 0 255 255
1.01172 -3.58968 -0.728427 0 255 255
0.997178 -3.58356 -0.72651 0 255 255
0.985915 -3.58668 -0.72651 0 255 255
0.972071 -3.58029 -0.724593 0 255 255
0.9589 -3.57367 -0.722676 0 255 255
0.950183 -3.58616 -0.724593 0 255 255
0.938285 -3.58929 -0.724593 0 255 255
0.924552 -3.58271 -0.722676 0 255 255
0.915714 -3.59511 -0.724593 0 255 255
0.902023 -3.58845 -0.722676 0 255 255
0.888382 -3.58174 -0.720759 0 255 255
0.877126 -3.58452 -0.720759 0 255 255
0.86586 -3.58725 -0.720759 0 255 255
0.852314 -3.58041 -0.718842 0 255 255
0.838818 -3.57351 -0.716925 0 255 255
0.832013 -3.59525 -0.720759 0 255 255
0.818532 -3.58828 -0.718842 0 255 255
0.807254 -3.59084 -0.718842 0 255 255
0.813971 -3.73008 -0.745679 0 255 255
0.818748 -3.80938 -0.761014 0 255 255
0.824386 -3.8985 -0.778266 0 255 255
0.828136 -3.97794 -0.793602 0 255 255
0.837307 -4.08628 -0.814688 0 255 255
0.841924 -4.17548 -0.83194 0 255 255
0.84599 -4.26475 -0.849192 0 255 255
0.847623 -4.34445 -0.864528 0 255 255
0.852462 -4.44348 -0.883697 0 255 255
0.856687 -4.54258 -0.902866 0 255 255
0.862086 -4.6514 -0.923952 0 255 255
0.32969 -2.20337 -0.435139 0 255 255
0.331297 -2.26267 -0.446641 0 255 255
0.325578 -2.27341 -0.448558 0 255 255
0.318435 -2.27442 -0.448558 0 255 255
0.312618 -2.28514 -0.450474 0 255 255
0.306337 -2.29589 -0.452391 0 255 255
0.724816 -5.70547 -1.12331 0 255 255
0.703269 -5.6785 -1.11756 0 255 255
0.685426 -5.68068 -1.11756 0 255 255
0.667577 -5.68281 -1.11756 0 255 255
0.610715 -5.34359 -1.05047 0 255 255
0.587422 -5.28695 -1.03897 0 255 255
0.571862 -5.29853 -1.04088 0 255 255
0.554191 -5.29054 -1.03897 0 255 255
0.537567 -5.29226 -1.03897 0 255 255
0.5219 -5.30369 -1.04088 0 255 255
0.507097 -5.32484 -1.04472 0 255 255
0.488566 -5.30686 -1.04088 0 255 255
0.471892 -5.30837 -1.04088 0 255 255
0.356575 -4.50059 -0.88178 0 255 255
0.279159 -3.66986 -0.718842 0 255 255
0.266201 -3.65114 -0.715008 0 255 255
0.254046 -3.64216 -0.713091 0 255 255
0.243255 -3.65274 -0.715008 0 255 255
0.231778 -3.65348 -0.715008 0 255 255
0.219709 -3.6444 -0.713091 0 255 255
0.208818 -3.65487 -0.715008 0 255 255
0.273597 -5.40089 -1.05622 0 255 255
0.269204 -5.66642 -1.10798 0 255 255
0.253576 -5.71626 -1.11756 0 255 255
0.026257 -1.03019 -0.201276 0 255 255
0.021047 -0.941962 -0.184024 0 255 255
0.018841 -0.981274 -0.191691 0 255 255
0.015443 -0.961702 -0.187857 0 255 255
0.012254 -0.961748 -0.187857 0 255 255
0.009327 -0.971596 -0.189774 0 255 255
0.006275 -0.97162 -0.189774 0 255 255
0.00319 -0.961821 -0.187857 0 255 255
0.000168 -0.961826 -0.187857 0 255 255
-0.002854 -0.961822 -0.187857 0 255 255
-0.005875 -0.961808 -0.187857 0 255 255
-0.008806 -0.951971 -0.185941 0 255 255
-0.011797 -0.951939 -0.185941 0 255 255
-0.01494 -0.96171 -0.187857 0 255 255
-0.017961 -0.961658 -0.187857 0 255 255
-0.020768 -0.951785 -0.185941 0 255 255
-0.024003 -0.961527 -0.187857 0 255 255
-0.027024 -0.961446 -0.187857 0 255 255
-0.030044 -0.961357 -0.187857 0 255 255
-0.033401 -0.971066 -0.189774 0 255 255
-0.036251 -0.961143 -0.187857 0 255 255
-0.039672 -0.97083 -0.189774 0 255 255
-0.042457 -0.960889 -0.187857 0 255 255
-0.045308 -0.960758 -0.187857 0 255 255
-0.048989 -0.970405 -0.189774 0 255 255
-0.051512 -0.960446 -0.187857 0 255 255
-0.055085 -0.970078 -0.189774 0 255 255
-0.058132 -0.9699 -0.189774 0 255 255
-0.061179 -0.969713 -0.189774 0 255 255
-0.064225 -0.969516 -0.189774 0 255 255
-0.066591 -0.959518 -0.187857 0 255 255
-0.069605 -0.959304 -0.187857 0 255 255
-0.071878 -0.949294 -0.185941 0 255 255
-0.075631 -0.958848 -0.187857 0 255 255
-0.078643 -0.958606 -0.187857 0 255 255
-0.081654 -0.958354 -0.187857 0 255 255
-0.084665 -0.958093 -0.187857 0 255 255
-0.087674 -0.957822 -0.187857 0 255 255
-0.091608 -0.967313 -0.189774 0 255 255
-0.094647 -0.96702 -0.189774 0 255 255
-0.097853 -0.966701 -0.189774 0 255 255
-0.09987 -0.956627 -0.187857 0 255 255
-0.103925 -0.966067 -0.189774 0 255 255
-0.10804 -0.975491 -0.191691 0 255 255
-0.109993 -0.965395 -0.189774 0 255 255
-0.114167 -0.974792 -0.191691 0 255 255
-0.116056 -0.964685 -0.189774 0 255 255
-0.119255 -0.964294 -0.189774 0 255 255
-0.123519 -0.973652 -0.191691 0 255 255
-0.126577 -0.973259 -0.191691 0 255 255
-0.128338 -0.963128 -0.189774 0 255 255
-0.132689 -0.972444 -0.191691 0 255 255
-0.134387 -0.962302 -0.189774 0 255 255
-0.138797 -0.971591 -0.191691 0 255 255
-0.14043 -0.961439 -0.189774 0 255 255
-0.144899 -0.9707 -0.191691 0 255 255
-0.149427 -0.979943 -0.193608 0 255 255
-0.150995 -0.969771 -0.191691 0 255 255
-0.154041 -0.969291 -0.191691 0 255 255
-0.157085 -0.968803 -0.191691 0 255 255
-0.160128 -0.968304 -0.191691 0 255 255
-0.164801 -0.977475 -0.193608 0 255 255
-0.168042 -0.976923 -0.193608 0 255 255
-0.169416 -0.966723 -0.191691 0 255 255
-0.172452 -0.966186 -0.191691 0 255 255
-0.175486 -0.965639 -0.191691 0 255 255
-0.180304 -0.974734 -0.193608 0 255 255
-0.18155 -0.964517 -0.191691 0 255 255
-0.186425 -0.973582 -0.193608 0 255 255
-0.187607 -0.963358 -0.191691 0 255 255
-0.190632 -0.962764 -0.191691 0 255 255
-0.195593 -0.971782 -0.193608 0 255 255
-0.196678 -0.961547 -0.191691 0 255 255
-0.203691 -0.980143 -0.195525 0 255 255
-0.204743 -0.969895 -0.193608 0 255 255
-0.207789 -0.969247 -0.193608 0 255 255
-0.210832 -0.968589 -0.193608 0 255 255
-0.218109 -0.987089 -0.197442 0 255 255
-0.219062 -0.976822 -0.195525 0 255 255
-0.22213 -0.976129 -0.195525 0 255 255
-0.225365 -0.975387 -0.195525 0 255 255
-0.230668 -0.98423 -0.197442 0 255 255
-0.231489 -0.973952 -0.195525 0 255 255
-0.236847 -0.982761 -0.197442 0 255 255
-0.235275 -0.962944 -0.193608 0 255 255
-0.243017 -0.981254 -0.197442 0 255 255
-0.246099 -0.980486 -0.197442 0 255 255
-0.246759 -0.970196 -0.195525 0 255 255
-0.249806 -0.969416 -0.195525 0 255 255
-0.25285 -0.968626 -0.195525 0 255 255
-0.256061 -0.967782 -0.195525 0 255 255
-0.26164 -0.976453 -0.197442 0 255 255
-0.262136 -0.966154 -0.195525 0 255 255
-0.26777 -0.97479 -0.197442 0 255 255
-0.270831 -0.973944 -0.197442 0 255 255
-0.273889 -0.973089 -0.197442 0 255 255
-0.276945 -0.972223 -0.197442 0 255 255
-0.282717 -0.980779 -0.199359 0 255 255
-0.283048 -0.970464 -0.197442 0 255 255
-0.288873 -0.978983 -0.199359 0 255 255
-0.291947 -0.978071 -0.199359 0 255 255
-0.297855 -0.986545 -0.201276 0 255 255
-0.298087 -0.976217 -0.199359 0 255 255
-0.301152 -0.975276 -0.199359 0 255 255
-0.304385 -0.974272 -0.199359 0 255 255
-0.3104 -0.98267 -0.201276 0 255 255
-0.313486 -0.98169 -0.201276 0 255 255
-0.316568 -0.9807 -0.201276 0 255 255
-0.319648 -0.979701 -0.201276 0 255 255
-0.322724 -0.978692 -0.201276 0 255 255
-0.325968 -0.977616 -0.201276 0 255 255
-0.332171 -0.985888 -0.203193 0 255 255
-0.332104 -0.975549 -0.201276 0 255 255
-0.335167 -0.9745 -0.201276 0 255 255
-0.338227 -0.973443 -0.201276 0 255 255
-0.341283 -0.972375 -0.201276 0 255 255
-0.344336 -0.971298 -0.201276 0 255 255
-0.347386 -0.970212 -0.201276 0 255 255
-0.357107 -0.987575 -0.20511 0 255 255
-0.363575 -0.995667 -0.207027 0 255 255
-0.35991 -0.976103 -0.203193 0 255 255
-0.362975 -0.974968 -0.203193 0 255 255
-0.369489 -0.98301 -0.20511 0 255 255
-0.372575 -0.981844 -0.20511 0 255 255
-0.372147 -0.971503 -0.203193 0 255 255
-0.378737 -0.979484 -0.20511 0 255 255
-0.381812 -0.978289 -0.20511 0 255 255
-0.384884 -0.977085 -0.20511 0 255 255
-0.384495 -0.966683 -0.203193 0 255 255
-0.391186 -0.974579 -0.20511 0 255 255
-0.394245 -0.973345 -0.20511 0 255 255
-0.401014 -0.981187 -0.207027 0 255 255
-0.404095 -0.979922 -0.207027 0 255 255
-0.407171 -0.978648 -0.207027 0 255 255
-0.410244 -0.977364 -0.207027 0 255 255
-0.413312 -0.97607 -0.207027 0 255 255
-0.416377 -0.974767 -0.207027 0 255 255
-0.427204 -0.991481 -0.21086 0 255 255
-0.430317 -0.990134 -0.21086 0 255 255
-0.429485 -0.979788 -0.208943 0 255 255
-0.440672 -0.99631 -0.212777 0 255 255
-0.435803 -0.976994 -0.208943 0 255 255
-0.447097 -0.993444 -0.212777 0 255 255
-0.445988 -0.983175 -0.21086 0 255 255
-0.453157 -0.990694 -0.212777 0 255 255
-0.456267 -0.989266 -0.212777 0 255 255
-0.463511 -0.996727 -0.214694 0 255 255
-0.462474 -0.986379 -0.212777 0 255 255
-0.46557 -0.984921 -0.212777 0 255 255
-0.468662 -0.983454 -0.212777 0 255 255
-0.480249 -0.99967 -0.216611 0 255 255
-0.47911 -0.989323 -0.214694 0 255 255
-0.490826 -1.00545 -0.218528 0 255 255
-0.485316 -0.986293 -0.214694 0 255 255
-0.488584 -0.984678 -0.214694 0 255 255
-0.500455 -1.00069 -0.218528 0 255 255
-0.499179 -0.990353 -0.216611 0 255 255
-0.502288 -0.98878 -0.216611 0 255 255
-0.509864 -0.995934 -0.218528 0 255 255
-0.512991 -0.994327 -0.218528 0 255 255
-0.511585 -0.984002 -0.216611 0 255 255
-0.528337 -1.00847 -0.222362 0 255 255
-0.526921 -0.998127 -0.220445 0 255 255
-0.525445 -0.987802 -0.218528 0 255 255
-0.533182 -0.994797 -0.220445 0 255 255
-0.540968 -1.00175 -0.222362 0 255 255
-0.539422 -0.991427 -0.220445 0 255 255
-0.547252 -0.998334 -0.222362 0 255 255
-0.559875 -1.01379 -0.226196 0 255 255
-0.558285 -1.00345 -0.224279 0 255 255
-0.56641 -1.01016 -0.226196 0 255 255
-0.574407 -1.01692 -0.228113 0 255 255
-0.587307 -1.03217 -0.231946 0 255 255
-0.13541 -0.227784 -0.051757 0 255 255
-0.131083 -0.218937 -0.04984 0 255 255
-0.13177 -0.218524 -0.04984 0 255 255
-0.127325 -0.209742 -0.047923 0 255 255
-0.127983 -0.209341 -0.047923 0 255 255
-0.144077 -0.234011 -0.053674 0 255 255
-0.129332 -0.20851 -0.047923 0 255 255
-0.124787 -0.199779 -0.046006 0 255 255
-0.125414 -0.199386 -0.046006 0 255 255
-0.141795 -0.223865 -0.051757 0 255 255
-0.126665 -0.198594 -0.046006 0 255 255
-0.127288 -0.198195 -0.046006 0 255 255
-0.12791 -0.197794 -0.046006 0 255 255
-0.128531 -0.197391 -0.046006 0 255 255
-0.12915 -0.196987 -0.046006 0 255 255
-0.135175 -0.204771 -0.047923 0 255 255
-0.135818 -0.204345 -0.047923 0 255 255
-0.131001 -0.195761 -0.046006 0 255 255
-0.137135 -0.203464 -0.047923 0 255 255
-0.132262 -0.194911 -0.046006 0 255 255
-0.132874 -0.194494 -0.046006 0 255 255
-0.127922 -0.185989 -0.044089 0 255 255
-0.134093 -0.193655 -0.046006 0 255 255
-0.129089 -0.185182 -0.044089 0 255 255
-0.146583 -0.208876 -0.04984 0 255 255
-0.135913 -0.192383 -0.046006 0 255 255
-0.147893 -0.207951 -0.04984 0 255 255
-0.182825 -0.255367 -0.061341 0 255 255
-0.177931 -0.246798 -0.059424 0 255 255
-0.18447 -0.254181 -0.061341 0 255 255
-0.208426 -0.2853 -0.069009 0 255 255
-0.290724 -0.395339 -0.095846 0 255 255
-0.221893 -0.299762 -0.072843 0 255 255
-0.310795 -0.417115 -0.101596 0 255 255
-0.312104 -0.416136 -0.101596 0 255 255
-0.307496 -0.407321 -0.099679 0 255 255
-0.302836 -0.398538 -0.097763 0 255 255
-0.339862 -0.44436 -0.109264 0 255 255
-0.299347 -0.388851 -0.095846 0 255 255
-0.246465 -0.318085 -0.078593 0 255 255
-0.211249 -0.270873 -0.067092 0 255 255
-0.254519 -0.32425 -0.08051 0 255 255
-0.212947 -0.269541 -0.067092 0 255 255
-0.201576 -0.253507 -0.063258 0 255 255
-0.171709 -0.214558 -0.053674 0 255 255
-0.160069 -0.198731 -0.04984 0 255 255
-0.142151 -0.175354 -0.044089 0 255 255
-0.15511 -0.190116 -0.047923 0 255 255
-0.14951 -0.182017 -0.046006 0 255 255
-0.143828 -0.173982 -0.044089 0 255 255
-0.150651 -0.181074 -0.046006 0 255 255
-0.15752 -0.188125 -0.047923 0 255 255
-0.151786 -0.180124 -0.046006 0 255 255
-0.152351 -0.179646 -0.046006 0 255 255
-0.165657 -0.194097 -0.04984 0 255 255
-0.159871 -0.18613 -0.047923 0 255 255
-0.173292 -0.200477 -0.051757 0 255 255
-0.167479 -0.192527 -0.04984 0 255 255
-0.181013 -0.206769 -0.053674 0 255 255
-0.194637 -0.220928 -0.057507 0 255 255
-0.214863 -0.242347 -0.063258 0 255 255
-0.222158 -0.248994 -0.065175 0 255 255
-0.229496 -0.255598 -0.067092 0 255 255
-0.354822 -0.380367 -0.101596 0 255 255
-0.315712 -0.336317 -0.090095 0 255 255
-0.343726 -0.363861 -0.097763 0 255 255
-0.338105 -0.355666 -0.095846 0 255 255
-0.339221 -0.354602 -0.095846 0 255 255
-0.32672 -0.339394 -0.092012 0 255 255
-0.320956 -0.331316 -0.090095 0 255 255
-0.342548 -0.35139 -0.095846 0 255 255
-0.34365 -0.350312 -0.095846 0 255 255
-0.351644 -0.356215 -0.097763 0 255 255
-0.345905 -0.348085 -0.095846 0 255 255
-0.346997 -0.346997 -0.095846 0 255 255
-0.36897 -0.366659 -0.101596 0 255 255
-0.363137 -0.358602 -0.099679 0 255 255
-0.357257 -0.350585 -0.097763 0 255 255
-0.35133 -0.342609 -0.095846 0 255 255
-0.359453 -0.348334 -0.097763 0 255 255
-0.353476 -0.340395 -0.095846 0 255 255
-0.347452 -0.332497 -0.093929 0 255 255
-0.348495 -0.331404 -0.093929 0 255 255
-0.349535 -0.330307 -0.093929 0 255 255
-0.350571 -0.329208 -0.093929 0 255 255
-0.365954 -0.341497 -0.097763 0 255 255
-0.359829 -0.333672 -0.095846 0 255 255
-0.360875 -0.33254 -0.095846 0 255 255
-0.369156 -0.338033 -0.097763 0 255 255
-0.370217 -0.336871 -0.097763 0 255 255
-0.371273 -0.335706 -0.097763 0 255 255
-0.386927 -0.347657 -0.101596 0 255 255
-0.373375 -0.333367 -0.097763 0 255 255
-0.367079 -0.325679 -0.095846 0 255 255
-0.375462 -0.331014 -0.097763 0 255 255
-0.391325 -0.3427 -0.101596 0 255 255
-0.384996 -0.335026 -0.099679 0 255 255
-0.371198 -0.320976 -0.095846 0 255 255
-0.402932 -0.328975 -0.101596 0 255 255
-0.396341 -0.321524 -0.099679 0 255 255
-0.382067 -0.307959 -0.095846 0 255 255
-0.398354 -0.319027 -0.099679 0 255 255
-0.391674 -0.311663 -0.097763 0 255 255
-0.346457 -0.27391 -0.086261 0 255 255
-0.378188 -0.297071 -0.093929 0 255 255
-0.386857 -0.30192 -0.095846 0 255 255
-0.387803 -0.300703 -0.095846 0 255 255
-0.365421 -0.281514 -0.090095 0 255 255
-0.374098 -0.28633 -0.092012 0 255 255
-0.39062 -0.297035 -0.095846 0 255 255
-0.352396 -0.266225 -0.086261 0 255 255
-0.384629 -0.288683 -0.093929 0 255 255
-0.377666 -0.281606 -0.092012 0 255 255
-0.347003 -0.25705 -0.084344 0 255 255
-0.347809 -0.255959 -0.084344 0 255 255
-0.35658 -0.260595 -0.086261 0 255 255
-0.357397 -0.259473 -0.086261 0 255 255
-0.35821 -0.258349 -0.086261 0 255 255
-0.351042 -0.251507 -0.084344 0 255 255
-0.35183 -0.250403 -0.084344 0 255 255
-0.360629 -0.254962 -0.086261 0 255 255
-0.353397 -0.248187 -0.084344 0 255 255
-0.362224 -0.252691 -0.086261 0 255 255
-0.371083 -0.257142 -0.088178 0 255 255
-0.371889 -0.255975 -0.088178 0 255 255
-0.388895 -0.265884 -0.092012 0 255 255
-0.389729 -0.264661 -0.092012 0 255 255
-0.374285 -0.252459 -0.088178 0 255 255
-0.391384 -0.262207 -0.092012 0 255 255
-0.392206 -0.260976 -0.092012 0 255 255
-0.384836 -0.254331 -0.090095 0 255 255
-0.402043 -0.263892 -0.093929 0 255 255
-0.394648 -0.257268 -0.092012 0 255 255
-0.403693 -0.261361 -0.093929 0 255 255
-0.388001 -0.249475 -0.090095 0 255 255
-0.380554 -0.242907 -0.088178 0 255 255
-0.373025 -0.236455 -0.086261 0 255 255
-0.382072 -0.240511 -0.088178 0 255 255
-0.391148 -0.244511 -0.090095 0 255 255
-0.400253 -0.248458 -0.092012 0 255 255
-0.392677 -0.242049 -0.090095 0 255 255
-0.401806 -0.245938 -0.092012 0 255 255
-0.402577 -0.244674 -0.092012 0 255 255
-0.394941 -0.238338 -0.090095 0 255 255
-0.395687 -0.237096 -0.090095 0 255 255
-0.404865 -0.240869 -0.092012 0 255 255
-0.41407 -0.244588 -0.093929 0 255 255
-0.406371 -0.238321 -0.092012 0 255 255
-0.415599 -0.241981 -0.093929 0 255 255
-0.40786 -0.235763 -0.092012 0 255 255
-0.408599 -0.23448 -0.092012 0 255 255
-0.409333 -0.233196 -0.092012 0 255 255
-0.418607 -0.23674 -0.093929 0 255 255
-0.41079 -0.230619 -0.092012 0 255 255
-0.420086 -0.234105 -0.093929 0 255 255
-0.429407 -0.237535 -0.095846 0 255 255
-0.438755 -0.240908 -0.097763 0 255 255
-0.430892 -0.234832 -0.095846 0 255 255
-0.448892 -0.242816 -0.099679 0 255 255
-0.449695 -0.241326 -0.099679 0 255 255
-0.441788 -0.235299 -0.097763 0 255 255
-0.442525 -0.23391 -0.097763 0 255 255
-0.451949 -0.237078 -0.099679 0 255 255
-0.435281 -0.226593 -0.095846 0 255 255
-0.45343 -0.234233 -0.099679 0 255 255
-0.436696 -0.223853 -0.095846 0 255 255
-0.419901 -0.213581 -0.092012 0 255 255
-0.438094 -0.221105 -0.095846 0 255 255
-0.43001 -0.215333 -0.093929 0 255 255
-0.421895 -0.209614 -0.092012 0 255 255
-0.431355 -0.212627 -0.093929 0 255 255
-0.423204 -0.206959 -0.092012 0 255 255
-0.397361 -0.192777 -0.086261 0 255 255
-0.397965 -0.191528 -0.086261 0 255 255
-0.389708 -0.186048 -0.084344 0 255 255
-0.399161 -0.189023 -0.086261 0 255 255
-0.381986 -0.179423 -0.082427 0 255 255
-0.382547 -0.178222 -0.082427 0 255 255
-0.374196 -0.172903 -0.08051 0 255 255
-0.392582 -0.179904 -0.084344 0 255 255
-0.393145 -0.17867 -0.084344 0 255 255
-0.384757 -0.173401 -0.082427 0 255 255
-0.3853 -0.172192 -0.082427 0 255 255
-0.376866 -0.167004 -0.08051 0 255 255
-0.377389 -0.165819 -0.08051 0 255 255
-0.36891 -0.160713 -0.078593 0 255 255
-0.387433 -0.167336 -0.082427 0 255 255
-0.378935 -0.162255 -0.08051 0 255 255
-0.361374 -0.153394 -0.076676 0 255 255
-0.370927 -0.156 -0.078593 0 255 255
-0.362357 -0.151057 -0.076676 0 255 255
-0.362856 -0.149855 -0.076676 0 255 255
-0.363299 -0.148777 -0.076676 0 255 255
-0.363764 -0.147635 -0.076676 0 255 255
-0.355096 -0.142892 -0.07476 0 255 255
-0.346426 -0.13814 -0.072843 0 255 255
-0.346859 -0.137051 -0.072843 0 255 255
-0.356427 -0.139539 -0.07476 0 255 255
-0.338563 -0.13132 -0.070926 0 255 255
-0.338974 -0.130256 -0.070926 0 255 255
-0.348553 -0.132682 -0.072843 0 255 255
-0.348969 -0.131586 -0.072843 0 255 255
-0.340186 -0.127055 -0.070926 0 255 255
-0.349811 -0.12933 -0.072843 0 255 255
-0.340999 -0.124856 -0.070926 0 255 255
-0.322936 -0.117093 -0.067092 0 255 255
-0.323303 -0.116078 -0.067092 0 255 255
-0.314418 -0.111774 -0.065175 0 255 255
-0.324026 -0.114044 -0.067092 0 255 255
-0.324382 -0.113025 -0.067092 0 255 255
-0.334014 -0.115206 -0.069009 0 255 255
-0.325086 -0.110985 -0.067092 0 255 255
-0.325414 -0.11002 -0.067092 0 255 255
-0.335065 -0.112111 -0.069009 0 255 255
-0.344733 -0.114143 -0.070926 0 255 255
-0.335763 -0.110004 -0.069009 0 255 255
-0.345463 -0.111914 -0.070926 0 255 255
-0.345813 -0.110829 -0.070926 0 255 255
-0.346159 -0.109742 -0.070926 0 255 255
-0.346502 -0.108654 -0.070926 0 255 255
-0.356216 -0.110472 -0.072843 0 255 255
-0.365945 -0.11223 -0.07476 0 255 255
-0.356903 -0.108231 -0.072843 0 255 255
-0.366643 -0.109928 -0.07476 0 255 255
-0.366986 -0.108776 -0.07476 0 255 255
-0.376745 -0.110382 -0.076676 0 255 255
-0.37709 -0.109198 -0.076676 0 255 255
-0.367995 -0.105312 -0.07476 0 255 255
-0.377768 -0.106826 -0.076676 0 255 255
-0.368649 -0.102998 -0.07476 0 255 255
-0.368971 -0.101839 -0.07476 0 255 255
-0.35982 -0.098098 -0.072843 0 255 255
-0.379081 -0.102071 -0.076676 0 255 255
-0.34146 -0.090792 -0.069009 0 255 255
-0.351236 -0.092211 -0.070926 0 255 255
-0.361025 -0.093569 -0.072843 0 255 255
-0.351808 -0.090002 -0.070926 0 255 255
-0.323542 -0.081688 -0.065175 0 255 255
-0.323797 -0.080672 -0.065175 0 255 255
-0.333579 -0.081997 -0.067092 0 255 255
-0.295695 -0.071645 -0.059424 0 255 255
-0.334102 -0.079841 -0.067092 0 255 255
-0.315232 -0.074344 -0.063258 0 255 255
-0.296345 -0.068907 -0.059424 0 255 255
-0.306127 -0.070169 -0.061341 0 255 255
-0.296772 -0.067044 -0.059424 0 255 255
-0.306562 -0.068244 -0.061341 0 255 255
-0.316361 -0.069383 -0.063258 0 255 255
-0.316578 -0.068389 -0.063258 0 255 255
-0.316791 -0.067394 -0.063258 0 255 255
-0.307395 -0.064386 -0.061341 0 255 255
-0.307596 -0.06342 -0.061341 0 255 255
-0.298175 -0.060502 -0.059424 0 255 255
-0.298364 -0.059565 -0.059424 0 255 255
-0.298549 -0.058627 -0.059424 0 255 255
-0.298732 -0.057689 -0.059424 0 255 255
-0.298912 -0.05675 -0.059424 0 255 255
-0.337681 -0.063012 -0.067092 0 255 255
