ply
format ascii 1.0
element vertex 1292
property float x
property float y
property float z
property uchar red
property uchar green
property uchar blue
end_header
-0.322152 -0.27729 -0.113702 0 255 255
-0.31568 -0.269998 -0.111118 0 255 255
-0.316527 -0.269005 -0.111118 0 255 255
-0.31737 -0.268009 -0.111118 0 255 255
-0.310811 -0.260801 -0.108534 0 255 255
-0.311628 -0.259823 -0.108534 0 255 255
-0.305004 -0.25268 -0.10595 0 255 255
-0.313255 -0.25786 -0.108534 0 255 255
-0.291672 -0.238476 -0.100782 0 255 255
-0.29242 -0.237558 -0.100782 0 255 255
-0.285647 -0.230571 -0.098197 0 255 255
-0.278834 -0.223628 -0.095613 0 255 255
-0.279535 -0.222751 -0.095613 0 255 255
-0.27266 -0.215875 -0.093029 0 255 255
-0.265744 -0.209045 -0.090445 0 255 255
-0.2664 -0.208209 -0.090445 0 255 255
-0.259422 -0.201446 -0.087861 0 255 255
-0.267739 -0.206484 -0.090445 0 255 255
-0.268386 -0.205642 -0.090445 0 255 255
-0.269031 -0.204798 -0.090445 0 255 255
-0.269673 -0.203952 -0.090445 0 255 255
-0.262589 -0.197301 -0.087861 0 255 255
-0.270949 -0.202253 -0.090445 0 255 255
-0.263823 -0.195647 -0.087861 0 255 255
-0.272214 -0.200547 -0.090445 0 255 255
-0.265047 -0.193985 -0.087861 0 255 255
-0.273504 -0.198785 -0.090445 0 255 255
-0.266295 -0.19227 -0.087861 0 255 255
-0.274747 -0.197063 -0.090445 0 255 255
-0.267497 -0.190593 -0.087861 0 255 255
-0.268095 -0.189751 -0.087861 0 255 255
-0.26869 -0.188908 -0.087861 0 255 255
-0.269282 -0.188063 -0.087861 0 255 255
-0.269871 -0.187216 -0.087861 0 255 255
-0.270491 -0.18632 -0.087861 0 255 255
-0.263102 -0.180015 -0.085277 0 255 255
-0.263666 -0.179187 -0.085277 0 255 255
-0.256221 -0.172953 -0.082693 0 255 255
-0.256763 -0.172147 -0.082693 0 255 255
-0.265343 -0.176694 -0.085277 0 255 255
-0.265897 -0.17586 -0.085277 0 255 255
-0.258404 -0.169675 -0.082693 0 255 255
-0.258935 -0.168862 -0.082693 0 255 255
-0.259465 -0.168048 -0.082693 0 255 255
-0.259991 -0.167232 -0.082693 0 255 255
-0.260515 -0.166414 -0.082693 0 255 255
-0.244722 -0.155245 -0.077524 0 255 255
-0.253382 -0.159625 -0.080108 0 255 255
-0.253882 -0.158828 -0.080108 0 255 255
-0.25438 -0.15803 -0.080108 0 255 255
-0.246653 -0.152158 -0.077524 0 255 255
-0.24713 -0.151382 -0.077524 0 255 255
-0.247605 -0.150605 -0.077524 0 255 255
-0.248077 -0.149827 -0.077524 0 255 255
-0.248572 -0.149003 -0.077524 0 255 255
-0.249039 -0.148221 -0.077524 0 255 255
-0.249503 -0.147438 -0.077524 0 255 255
-0.249965 -0.146654 -0.077524 0 255 255
-0.242077 -0.141006 -0.07494 0 255 255
-0.250882 -0.14508 -0.077524 0 255 255
-0.251336 -0.144291 -0.077524 0 255 255
-0.251788 -0.143501 -0.077524 0 255 255
-0.235445 -0.133154 -0.072356 0 255 255
-0.25271 -0.141872 -0.077524 0 255 255
-0.261618 -0.145734 -0.080108 0 255 255
-0.262049 -0.144958 -0.080108 0 255 255
-0.254036 -0.139484 -0.077524 0 255 255
-0.262955 -0.143308 -0.080108 0 255 255
-0.271901 -0.147078 -0.082693 0 255 255
-0.26385 -0.141653 -0.080108 0 255 255
-0.255792 -0.136236 -0.077524 0 255 255
-0.2733 -0.144461 -0.082693 0 255 255
-0.265198 -0.139114 -0.080108 0 255 255
-0.265634 -0.13828 -0.080108 0 255 255
-0.257484 -0.133011 -0.077524 0 255 255
-0.266497 -0.136608 -0.080108 0 255 255
-0.266949 -0.135724 -0.080108 0 255 255
-0.250124 -0.126182 -0.07494 0 255 255
-0.250519 -0.125396 -0.07494 0 255 255
-0.259564 -0.128905 -0.077524 0 255 255
-0.268633 -0.132359 -0.080108 0 255 255
-0.286406 -0.139999 -0.085277 0 255 255
-0.26946 -0.130668 -0.080108 0 255 255
-0.278574 -0.134009 -0.082693 0 255 255
-0.296431 -0.141454 -0.087861 0 255 255
-0.305605 -0.144655 -0.090445 0 255 255
-0.349781 -0.164222 -0.103366 0 255 255
-0.359053 -0.1672 -0.10595 0 255 255
-0.394657 -0.182273 -0.116286 0 255 255
-0.404042 -0.184985 -0.118871 0 255 255
-0.387029 -0.175727 -0.113702 0 255 255
-0.387579 -0.174511 -0.113702 0 255 255
-0.414589 -0.185107 -0.121455 0 255 255
-0.406335 -0.179893 -0.118871 0 255 255
-0.406898 -0.178616 -0.118871 0 255 255
-0.425173 -0.185047 -0.124039 0 255 255
-0.416882 -0.179883 -0.121455 0 255 255
-0.417445 -0.178572 -0.121455 0 255 255
-0.418035 -0.177187 -0.121455 0 255 255
-0.400777 -0.168389 -0.116286 0 255 255
-0.401305 -0.167129 -0.116286 0 255 255
-0.410757 -0.169554 -0.118871 0 255 255
-0.402347 -0.164604 -0.116286 0 255 255
-0.402833 -0.16341 -0.116286 0 255 255
-0.403373 -0.162073 -0.116286 0 255 255
-0.394905 -0.157232 -0.113702 0 255 255
-0.395397 -0.15599 -0.113702 0 255 255
-0.386888 -0.15123 -0.111118 0 255 255
-0.378353 -0.146525 -0.108534 0 255 255
-0.360772 -0.138415 -0.103366 0 255 255
-0.343145 -0.130417 -0.098197 0 255 255
-0.325471 -0.122531 -0.093029 0 255 255
-0.316803 -0.118133 -0.090445 0 255 255
-0.308131 -0.113737 -0.087861 0 255 255
-0.299413 -0.109451 -0.085277 0 255 255
-0.290672 -0.105222 -0.082693 0 255 255
-0.281907 -0.101048 -0.080108 0 255 255
-0.291328 -0.103393 -0.082693 0 255 255
-0.291651 -0.102478 -0.082693 0 255 255
-0.301096 -0.104735 -0.085277 0 255 255
-0.310557 -0.106933 -0.087861 0 255 255
-0.320035 -0.109074 -0.090445 0 255 255
-0.302069 -0.101892 -0.085277 0 255 255
-0.320714 -0.107061 -0.090445 0 255 255
-0.339414 -0.112053 -0.095613 0 255 255
-0.339765 -0.110987 -0.095613 0 255 255
-0.312535 -0.101006 -0.087861 0 255 255
-0.312851 -0.100024 -0.087861 0 255 255
-0.313164 -0.099041 -0.087861 0 255 255
-0.313473 -0.098056 -0.087861 0 255 255
-0.304551 -0.094216 -0.085277 0 255 255
-0.304845 -0.093259 -0.085277 0 255 255
-0.305137 -0.092301 -0.085277 0 255 255
-0.305425 -0.091341 -0.085277 0 255 255
-0.305711 -0.090382 -0.085277 0 255 255
-0.315266 -0.09213 -0.087861 0 255 255
-0.315554 -0.09114 -0.087861 0 255 255
-0.325144 -0.092742 -0.090445 0 255 255
-0.325434 -0.09172 -0.090445 0 255 255
-0.316414 -0.088106 -0.087861 0 255 255
-0.326003 -0.089674 -0.090445 0 255 255
-0.298316 -0.081051 -0.082693 0 255 255
-0.3079 -0.082617 -0.085277 0 255 255
-0.308158 -0.081649 -0.085277 0 255 255
-0.299067 -0.078236 -0.082693 0 255 255
-0.289958 -0.07488 -0.080108 0 255 255
-0.280831 -0.071583 -0.077524 0 255 255
-0.281054 -0.0707 -0.077524 0 255 255
-0.271911 -0.067442 -0.07494 0 255 255
-0.262738 -0.064292 -0.072356 0 255 255
-0.234767 -0.056666 -0.064604 0 255 255
-0.253739 -0.060402 -0.069772 0 255 255
-0.244523 -0.057397 -0.067188 0 255 255
-0.23529 -0.054451 -0.064604 0 255 255
-0.23546 -0.053711 -0.064604 0 255 255
-0.235628 -0.052971 -0.064604 0 255 255
-0.235793 -0.052231 -0.064604 0 255 255
-0.254832 -0.055609 -0.069772 0 255 255
-0.236116 -0.050748 -0.064604 0 255 255
-0.245726 -0.052007 -0.067188 0 255 255
-0.245888 -0.051234 -0.067188 0 255 255
-0.264984 -0.054297 -0.072356 0 255 255
-0.303032 -0.061102 -0.082693 0 255 255
-0.316367 -0.039237 -0.085277 0 255 255
-0.297308 -0.035926 -0.080108 0 255 255
-0.307013 -0.03612 -0.082693 0 255 255
-0.316723 -0.036254 -0.085277 0 255 255
-0.326873 -0.032165 -0.087861 0 255 255
-0.317355 -0.030223 -0.085277 0 255 255
-0.317449 -0.029225 -0.085277 0 255 255
-0.336784 -0.029939 -0.090445 0 255 255
-0.308822 -0.013807 -0.082693 0 255 255
-0.27991 -0.011585 -0.07494 0 255 255
-0.270292 -0.010336 -0.072356 0 255 255
-0.289632 -0.010165 -0.077524 0 255 255
-0.270401 -0.006939 -0.072356 0 255 255
-0.270421 -0.006089 -0.072356 0 255 255
-0.26078 -0.005053 -0.069772 0 255 255
-0.260795 -0.004233 -0.069772 0 255 255
-0.251147 -0.003288 -0.067188 0 255 255
-0.241497 -0.002403 -0.064604 0 255 255
-0.270483 -0.001841 -0.072356 0 255 255
-0.260827 -0.000956 -0.069772 0 255 255
-0.241508 -0.000126 -0.064604 0 255 255
-0.222187 0.000582 -0.059435 0 255 255
-0.222184 0.00128 -0.059435 0 255 255
-0.212519 0.001892 -0.056851 0 255 255
-0.212512 0.002559 -0.056851 0 255 255
-0.212502 0.003264 -0.056851 0 255 255
-0.212491 0.003932 -0.056851 0 255 255
-0.222135 0.004847 -0.059435 0 255 255
-0.212462 0.005267 -0.056851 0 255 255
-0.202788 0.005664 -0.054267 0 255 255
-0.222081 0.006902 -0.059435 0 255 255
-0.212403 0.007269 -0.056851 0 255 255
-0.231686 0.008658 -0.062019 0 255 255
-0.212353 0.008603 -0.056851 0 255 255
-0.221976 0.009692 -0.059435 0 255 255
-0.221945 0.010389 -0.059435 0 255 255
-0.221911 0.011086 -0.059435 0 255 255
-0.221875 0.011783 -0.059435 0 255 255
-0.231482 0.013023 -0.062019 0 255 255
-0.26037 0.015469 -0.069772 0 255 255
-0.26032 0.016287 -0.069772 0 255 255
-0.269907 0.017738 -0.072356 0 255 255
-0.26985 0.018586 -0.072356 0 255 255
-0.279426 0.020128 -0.07494 0 255 255
-0.288994 0.02173 -0.077524 0 255 255
-0.269663 0.021128 -0.072356 0 255 255
-0.269595 0.021975 -0.072356 0 255 255
-0.298398 0.025319 -0.080108 0 255 255
-0.298317 0.026257 -0.080108 0 255 255
-0.298233 0.027194 -0.080108 0 255 255
-0.288529 0.027223 -0.077524 0 255 255
-0.298057 0.029067 -0.080108 0 255 255
-0.297964 0.030003 -0.080108 0 255 255
-0.269042 0.027945 -0.072356 0 255 255
-0.249742 0.026734 -0.067188 0 255 255
-0.278463 0.030693 -0.07494 0 255 255
-0.259168 0.029391 -0.069772 0 255 255
-0.26867 0.031324 -0.072356 0 255 255
-0.26857 0.032168 -0.072356 0 255 255
-0.268468 0.033011 -0.072356 0 255 255
-0.268363 0.033854 -0.072356 0 255 255
-0.268255 0.034697 -0.072356 0 255 255
-0.287298 0.038079 -0.077524 0 255 255
-0.296749 0.04028 -0.080108 0 255 255
-0.287053 0.039883 -0.077524 0 255 255
-0.277362 0.039425 -0.07494 0 255 255
-0.277237 0.040296 -0.07494 0 255 255
-0.286664 0.042587 -0.077524 0 255 255
-0.276978 0.042037 -0.07494 0 255 255
-0.314717 0.050804 -0.085277 0 255 255
-0.28596 0.047084 -0.077524 0 255 255
-0.285811 0.047982 -0.077524 0 255 255
-0.266615 0.045621 -0.072356 0 255 255
-0.26647 0.046459 -0.072356 0 255 255
-0.256803 0.045651 -0.069772 0 255 255
-0.256658 0.046458 -0.069772 0 255 255
-0.256519 0.047219 -0.069772 0 255 255
-0.265865 0.049803 -0.072356 0 255 255
-0.256218 0.04883 -0.069772 0 255 255
-0.237095 0.045958 -0.064604 0 255 255
-0.23695 0.046703 -0.064604 0 255 255
-0.236802 0.047447 -0.064604 0 255 255
-0.246118 0.050118 -0.067188 0 255 255
-0.236499 0.048934 -0.064604 0 255 255
-0.255252 0.05365 -0.069772 0 255 255
-0.273967 0.058533 -0.07494 0 255 255
-0.273782 0.059394 -0.07494 0 255 255
-0.273594 0.060254 -0.07494 0 255 255
-0.263975 0.059006 -0.072356 0 255 255
-0.263789 0.059834 -0.072356 0 255 255
-0.244771 0.05633 -0.067188 0 255 255
-0.244593 0.057098 -0.067188 0 255 255
-0.244412 0.057867 -0.067188 0 255 255
-0.216049 0.051869 -0.059435 0 255 255
-0.206498 0.050263 -0.056851 0 255 255
-0.20634 0.050911 -0.056851 0 255 255
-0.196807 0.049215 -0.054267 0 255 255
-0.206016 0.052206 -0.056851 0 255 255
-0.215207 0.055256 -0.059435 0 255 255
-0.215033 0.055932 -0.059435 0 255 255
-0.205514 0.054146 -0.056851 0 255 255
-0.214677 0.057282 -0.059435 0 255 255
-0.20517 0.055436 -0.056851 0 255 255
-0.204995 0.05608 -0.056851 0 255 255
-0.204818 0.056724 -0.056851 0 255 255
-0.204639 0.057367 -0.056851 0 255 255
-0.232338 0.06592 -0.064604 0 255 255
-0.2507 0.071982 -0.069772 0 255 255
-0.213366 0.061988 -0.059435 0 255 255
-0.222438 0.065383 -0.062019 0 255 255
-0.222232 0.066081 -0.062019 0 255 255
-0.231274 0.069562 -0.064604 0 255 255
-0.268023 0.081534 -0.07494 0 255 255
-0.295465 0.090897 -0.082693 0 255 255
-0.304403 0.094694 -0.085277 0 255 255
-0.294888 0.092752 -0.082693 0 255 255
-0.313008 0.099532 -0.087861 0 255 255
-0.331087 0.106428 -0.093029 0 255 255
-0.358314 0.116423 -0.100782 0 255 255
-0.367103 0.120626 -0.103366 0 255 255
-0.394227 0.130913 -0.111118 0 255 255
-0.39379 0.132219 -0.111118 0 255 255
-0.411694 0.139591 -0.116286 0 255 255
-0.402114 0.137753 -0.113702 0 255 255
-0.419963 0.145261 -0.118871 0 255 255
-0.428598 0.149841 -0.121455 0 255 255
-0.428125 0.151187 -0.121455 0 255 255
-0.418549 0.149286 -0.118871 0 255 255
-0.436256 0.157148 -0.124039 0 255 255
-0.426681 0.155215 -0.121455 0 255 255
-0.426192 0.156555 -0.121455 0 255 255
-0.434755 0.161252 -0.124039 0 255 255
-0.434246 0.162617 -0.124039 0 255 255
-0.442769 0.167397 -0.126623 0 255 255
-0.442241 0.168787 -0.126623 0 255 255
-0.432695 0.166703 -0.124039 0 255 255
-0.432169 0.168061 -0.124039 0 255 255
-0.440631 0.172948 -0.126623 0 255 255
-0.431104 0.170773 -0.124039 0 255 255
-0.430566 0.172127 -0.124039 0 255 255
-0.438982 0.177093 -0.126623 0 255 255
-0.438423 0.178471 -0.126623 0 255 255
-0.43786 0.179847 -0.126623 0 255 255
-0.437293 0.181222 -0.126623 0 255 255
-0.436721 0.182595 -0.126623 0 255 255
-0.445047 0.18772 -0.129207 0 255 255
-0.435566 0.185335 -0.126623 0 255 255
-0.434981 0.186703 -0.126623 0 255 255
-0.434392 0.188068 -0.126623 0 255 255
-0.4338 0.189432 -0.126623 0 255 255
-0.433202 0.190794 -0.126623 0 255 255
-0.423772 0.188233 -0.124039 0 255 255
-0.423179 0.189563 -0.124039 0 255 255
-0.422581 0.190891 -0.124039 0 255 255
-0.413188 0.188214 -0.121455 0 255 255
-0.403816 0.185479 -0.118871 0 255 255
-0.420763 0.194866 -0.124039 0 255 255
-0.402643 0.188012 -0.118871 0 255 255
-0.41079 0.193391 -0.121455 0 255 255
-0.401453 0.190538 -0.118871 0 255 255
-0.400853 0.191798 -0.118871 0 255 255
-0.391547 0.18886 -0.116286 0 255 255
-0.39964 0.194313 -0.118871 0 255 255
-0.399027 0.195568 -0.118871 0 255 255
-0.38975 0.192542 -0.116286 0 255 255
-0.389143 0.193765 -0.116286 0 255 255
-0.388533 0.194987 -0.116286 0 255 255
-0.387918 0.196207 -0.116286 0 255 255
-0.3873 0.197424 -0.116286 0 255 255
-0.386678 0.19864 -0.116286 0 255 255
-0.386052 0.199854 -0.116286 0 255 255
-0.385422 0.201066 -0.116286 0 255 255
-0.384788 0.202276 -0.116286 0 255 255
-0.384151 0.203483 -0.116286 0 255 255
-0.392032 0.209238 -0.118871 0 255 255
-0.382865 0.205893 -0.116286 0 255 255
-0.373722 0.202493 -0.113702 0 255 255
-0.381564 0.208295 -0.116286 0 255 255
-0.380907 0.209492 -0.116286 0 255 255
-0.371797 0.206006 -0.113702 0 255 255
-0.379584 0.211881 -0.116286 0 255 255
-0.395757 0.222543 -0.121455 0 255 255
-0.378245 0.214262 -0.116286 0 255 255
-0.37757 0.215449 -0.116286 0 255 255
-0.376891 0.216635 -0.116286 0 255 255
-0.376209 0.217818 -0.116286 0 255 255
-0.383868 0.223865 -0.118871 0 255 255
-0.383162 0.22507 -0.118871 0 255 255
-0.382453 0.226272 -0.118871 0 255 255
-0.381741 0.227473 -0.118871 0 255 255
-0.381024 0.228671 -0.118871 0 255 255
-0.372036 0.22487 -0.116286 0 255 255
-0.37958 0.23106 -0.118871 0 255 255
-0.378852 0.232252 -0.118871 0 255 255
-0.386341 0.238516 -0.121455 0 255 255
-0.385589 0.239728 -0.121455 0 255 255
-0.393022 0.246065 -0.124039 0 255 255
-0.392247 0.247298 -0.124039 0 255 255
-0.399624 0.253707 -0.126623 0 255 255
-0.398825 0.254961 -0.126623 0 255 255
-0.398022 0.256213 -0.126623 0 255 255
-0.405322 0.262716 -0.129207 0 255 255
-0.404494 0.263988 -0.129207 0 255 255
-0.403663 0.265258 -0.129207 0 255 255
-0.402828 0.266525 -0.129207 0 255 255
-0.410028 0.273145 -0.131791 0 255 255
-0.409168 0.274431 -0.131791 0 255 255
-0.408304 0.275716 -0.131791 0 255 255
-0.399447 0.271566 -0.129207 0 255 255
-0.406563 0.278275 -0.131791 0 255 255
-0.429551 0.295996 -0.139544 0 255 255
-0.436557 0.30285 -0.142128 0 255 255
-0.443577 0.309674 -0.144712 0 255 255
-0.450505 0.316621 -0.147296 0 255 255
-0.441623 0.312455 -0.144712 0 255 255
-0.440639 0.313841 -0.144712 0 255 255
-0.455352 0.326481 -0.14988 0 255 255
-0.454324 0.32791 -0.14988 0 255 255
-0.461049 0.335095 -0.152465 0 255 255
-0.459994 0.336541 -0.152465 0 255 255
-0.435655 0.320723 -0.144712 0 255 255
-0.442407 0.327842 -0.147296 0 255 255
-0.433631 0.323454 -0.144712 0 255 255
-0.424887 0.319015 -0.142128 0 255 255
-0.423883 0.320348 -0.142128 0 255 255
-0.415186 0.315829 -0.139544 0 255 255
-0.429532 0.328878 -0.144712 0 255 255
-0.428497 0.330225 -0.144712 0 255 255
-0.412191 0.319728 -0.139544 0 255 255
-0.395956 0.309132 -0.134375 0 255 255
-0.394982 0.310374 -0.134375 0 255 255
-0.386428 0.305621 -0.131791 0 255 255
-0.385466 0.306834 -0.131791 0 255 255
-0.3845 0.308043 -0.131791 0 255 255
-0.391051 0.315313 -0.134375 0 255 255
-0.390058 0.31654 -0.134375 0 255 255
-0.389062 0.317764 -0.134375 0 255 255
-0.388062 0.318985 -0.134375 0 255 255
-0.401945 0.332518 -0.139544 0 255 255
-0.378626 0.315235 -0.131791 0 255 255
-0.392443 0.328832 -0.13696 0 255 255
-0.406178 0.342519 -0.142128 0 255 255
-0.4051 0.343793 -0.142128 0 255 255
-0.396672 0.33879 -0.139544 0 255 255
-0.395606 0.340035 -0.139544 0 255 255
-0.401842 0.347596 -0.142128 0 255 255
-0.400748 0.348856 -0.142128 0 255 255
-0.392384 0.343748 -0.139544 0 255 255
-0.398548 0.351367 -0.142128 0 255 255
-0.404669 0.359029 -0.144712 0 255 255
-0.417951 0.373166 -0.14988 0 255 255
-0.416776 0.374478 -0.14988 0 255 255
-0.415598 0.375785 -0.14988 0 255 255
-0.414415 0.377089 -0.14988 0 255 255
-0.413229 0.378389 -0.14988 0 255 255
-0.412038 0.379685 -0.14988 0 255 255
-0.403759 0.374409 -0.147296 0 255 255
-0.388456 0.362494 -0.142128 0 255 255
-0.373231 0.350487 -0.13696 0 255 255
-0.379149 0.358293 -0.139544 0 255 255
-0.378021 0.359482 -0.139544 0 255 255
-0.37689 0.360668 -0.139544 0 255 255
-0.382714 0.368551 -0.142128 0 255 255
-0.388491 0.376474 -0.144712 0 255 255
-0.401139 0.391182 -0.14988 0 255 255
-0.413698 0.405973 -0.155049 0 255 255
-0.405547 0.400483 -0.152465 0 255 255
-0.404287 0.401754 -0.152465 0 255 255
-0.366804 0.410681 -0.147296 0 255 255
-0.371925 0.419056 -0.14988 0 255 255
-0.370606 0.420222 -0.14988 0 255 255
-0.362917 0.414119 -0.147296 0 255 255
-0.367959 0.422543 -0.14988 0 255 255
-0.37295 0.431002 -0.152465 0 255 255
-0.358998 0.417521 -0.147296 0 255 255
-0.357685 0.418647 -0.147296 0 255 255
-0.375124 0.441862 -0.155049 0 255 255
-0.367505 0.435654 -0.152465 0 255 255
-0.347518 0.414596 -0.144712 0 255 255
-0.358578 0.430532 -0.14988 0 255 255
-0.357224 0.431656 -0.14988 0 255 255
-0.355866 0.432776 -0.14988 0 255 255
-0.360694 0.44131 -0.152465 0 255 255
-0.359306 0.442441 -0.152465 0 255 255
-0.351848 0.436049 -0.14988 0 255 255
-0.350476 0.437153 -0.14988 0 255 255
-0.349101 0.438252 -0.14988 0 255 255
-0.335732 0.424196 -0.144712 0 255 255
-0.328426 0.417655 -0.142128 0 255 255
-0.321165 0.411072 -0.139544 0 255 255
-0.313949 0.404448 -0.13696 0 255 255
-0.324475 0.420732 -0.142128 0 255 255
-0.311401 0.406413 -0.13696 0 255 255
-0.310123 0.407389 -0.13696 0 255 255
-0.314669 0.416066 -0.139544 0 255 255
-0.319163 0.424776 -0.142128 0 255 255
-0.317827 0.425777 -0.142128 0 255 255
-0.3138 0.428753 -0.142128 0 255 255
-0.318132 0.43755 -0.144712 0 255 255
-0.3111 0.430716 -0.142128 0 255 255
-0.309745 0.431692 -0.142128 0 255 255
-0.30278 0.424796 -0.139544 0 255 255
-0.279115 0.394208 -0.129207 0 255 255
-0.283433 0.402985 -0.131791 0 255 255
-0.276633 0.395954 -0.129207 0 255 255
-0.280895 0.404758 -0.131791 0 255 255
-0.293441 0.4313 -0.139544 0 255 255
-0.308312 0.456232 -0.147296 0 255 255
-0.316157 0.474236 -0.152465 0 255 255
-0.319998 0.483281 -0.155049 0 255 255
-0.313171 0.476213 -0.152465 0 255 255
-1.60951 4.09017 -1.17579 0 255 255
-1.59315 4.08621 -1.1732 0 255 255
-1.57682 4.08218 -1.17062 0 255 255
-1.57089 4.10516 -1.17579 0 255 255
-1.55799 4.11007 -1.17579 0 255 255
-1.54167 4.1059 -1.1732 0 255 255
-1.5254 4.10167 -1.17062 0 255 255
-1.51656 4.11524 -1.1732 0 255 255
-1.50622 4.12933 -1.17579 0 255 255
-1.49324 4.13404 -1.17579 0 255 255
-1.47952 4.13897 -1.17579 0 255 255
-1.47368 4.16155 -1.18095 0 255 255
-1.4638 4.17528 -1.18354 0 255 255
-1.45701 4.19811 -1.18871 0 255 255
-1.43754 4.18439 -1.18354 0 255 255
-1.42822 4.19778 -1.18612 0 255 255
-1.41503 4.20225 -1.18612 0 255 255
-1.40182 4.20667 -1.18612 0 255 255
-1.3886 4.21106 -1.18612 0 255 255
-1.37836 4.22458 -1.18871 0 255 255
-1.36211 4.2197 -1.18612 0 255 255
-1.35473 4.24236 -1.19129 0 255 255
-1.33557 4.22817 -1.18612 0 255 255
-1.32805 4.25079 -1.19129 0 255 255
-1.30898 4.23648 -1.18612 0 255 255
-1.30205 4.25882 -1.19129 0 255 255
-1.28867 4.26289 -1.19129 0 255 255
-1.2808 4.28543 -1.19646 0 255 255
-1.26385 4.28039 -1.19387 0 255 255
-1.25851 4.31216 -1.20163 0 255 255
-1.2396 4.29753 -1.19646 0 255 255
-1.22875 4.31069 -1.19904 0 255 255
-1.21258 4.30523 -1.19646 0 255 255
-1.20498 4.32743 -1.20163 0 255 255
-1.19138 4.33119 -1.20163 0 255 255
-1.17701 4.33512 -1.20163 0 255 255
-1.16339 4.33879 -1.20163 0 255 255
-1.15051 4.34223 -1.20163 0 255 255
-1.14175 4.36451 -1.20679 0 255 255
-1.12562 4.35872 -1.20421 0 255 255
-1.11192 4.36224 -1.20421 0 255 255
-1.10057 4.37508 -1.20679 0 255 255
-1.08682 4.37851 -1.20679 0 255 255
-1.07535 4.39129 -1.20938 0 255 255
-1.06155 4.39465 -1.20938 0 255 255
-1.04998 4.40736 -1.21196 0 255 255
-1.03613 4.41063 -1.21196 0 255 255
-1.02009 4.40446 -1.20938 0 255 255
-1.00839 4.41706 -1.21196 0 255 255
-0.996635 4.42963 -1.21455 0 255 255
-0.982713 4.43274 -1.21455 0 255 255
-0.968785 4.4358 -1.21455 0 255 255
-0.954843 4.43882 -1.21455 0 255 255
-0.940892 4.4418 -1.21455 0 255 255
-0.930879 4.46365 -1.21972 0 255 255
-0.914907 4.45709 -1.21713 0 255 255
-0.900904 4.45994 -1.21713 0 255 255
-0.888769 4.47222 -1.21972 0 255 255
-0.872861 4.46551 -1.21713 0 255 255
-0.860652 4.47772 -1.21972 0 255 255
-0.842994 4.46142 -1.21455 0 255 255
-0.833285 4.48289 -1.21972 0 255 255
-0.819196 4.48549 -1.21972 0 255 255
-0.806805 4.49755 -1.2223 0 255 255
-0.790996 4.49055 -1.21972 0 255 255
-0.776886 4.49301 -1.21972 0 255 255
-0.762768 4.49543 -1.21972 0 255 255
-0.74864 4.4978 -1.21972 0 255 255
-0.732949 4.4906 -1.21713 0 255 255
-0.721891 4.51196 -1.2223 0 255 255
-0.707713 4.5142 -1.2223 0 255 255
-0.69206 4.50686 -1.21972 0 255 255
-0.677899 4.50901 -1.21972 0 255 255
-0.665924 4.52056 -1.2223 0 255 255
-0.650342 4.51306 -1.21972 0 255 255
-0.636162 4.51509 -1.21972 0 255 255
-0.62329 4.52663 -1.2223 0 255 255
-0.609067 4.52857 -1.2223 0 255 255
-0.593579 4.52088 -1.21972 0 255 255
-0.580601 4.5323 -1.2223 0 255 255
-0.566361 4.53411 -1.2223 0 255 255
-0.552112 4.53586 -1.2223 0 255 255
-0.538998 4.54717 -1.22488 0 255 255
-0.523601 4.53924 -1.2223 0 255 255
-0.509339 4.54086 -1.2223 0 255 255
-0.496119 4.55205 -1.22488 0 255 255
-0.480798 4.54398 -1.2223 0 255 255
-0.466521 4.54546 -1.2223 0 255 255
-0.452237 4.54691 -1.2223 0 255 255
-0.43689 4.529 -1.21713 0 255 255
-0.424455 4.54958 -1.2223 0 255 255
-0.411026 4.56052 -1.22488 0 255 255
-0.396698 4.56179 -1.22488 0 255 255
-0.381557 4.55338 -1.2223 0 255 255
-0.367253 4.55456 -1.2223 0 255 255
-0.354434 4.57495 -1.22747 0 255 255
-0.340058 4.57604 -1.22747 0 255 255
-0.325681 4.57709 -1.22747 0 255 255
-0.310646 4.56845 -1.22488 0 255 255
-0.296918 4.57905 -1.22747 0 255 255
-0.28253 4.57996 -1.22747 0 255 255
-0.268703 4.59047 -1.23005 0 255 255
-0.253747 4.58164 -1.22747 0 255 255
-0.239857 4.59206 -1.23005 0 255 255
-0.225902 4.60244 -1.23264 0 255 255
-0.213659 4.65138 -1.24556 0 255 255
-0.199457 4.66168 -1.24814 0 255 255
-0.184812 4.66228 -1.24814 0 255 255
-0.169812 4.65319 -1.24556 0 255 255
-0.155192 4.6537 -1.24556 0 255 255
-0.14028 4.64451 -1.24297 0 255 255
-0.125948 4.65458 -1.24556 0 255 255
-0.111095 4.6453 -1.24297 0 255 255
-0.096502 4.64562 -1.24297 0 255 255
-0.082246 4.66522 -1.24814 0 255 255
-0.068404 4.66544 -1.24814 0 255 255
-0.052822 4.65598 -1.24556 0 255 255
-0.038274 4.66579 -1.24814 0 255 255
-0.023617 4.66588 -1.24814 0 255 255
-0.009751 4.65627 -1.24556 0 255 255
0.004886 4.66594 -1.24814 0 255 255
0.019546 4.6659 -1.24814 0 255 255
0.034132 4.65616 -1.24556 0 255 255
0.04886 4.66569 -1.24814 0 255 255
0.06365 4.67517 -1.25073 0 255 255
0.078013 4.65563 -1.24556 0 255 255
0.093024 4.67468 -1.25073 0 255 255
0.106672 4.66472 -1.24814 0 255 255
0.121326 4.66437 -1.24814 0 255 255
0.13598 4.66396 -1.24814 0 255 255
0.150942 4.67317 -1.25073 0 255 255
0.166783 4.6823 -1.25331 0 255 255
0.180741 4.66244 -1.24814 0 255 255
0.194978 4.67154 -1.25073 0 255 255
0.209655 4.6709 -1.25073 0 255 255
0.22479 4.67987 -1.25331 0 255 255
0.238999 4.66949 -1.25073 0 255 255
0.253666 4.66872 -1.25073 0 255 255
0.268886 4.67754 -1.25331 0 255 255
0.282996 4.66703 -1.25073 0 255 255
0.297656 4.66612 -1.25073 0 255 255
0.312312 4.66516 -1.25073 0 255 255
0.327644 4.6738 -1.25331 0 255 255
0.341619 4.66311 -1.25073 0 255 255
0.356268 4.66201 -1.25073 0 255 255
0.371678 4.6705 -1.25331 0 255 255
0.385551 4.65968 -1.25073 0 255 255
0.401016 4.66807 -1.25331 0 255 255
0.415678 4.66679 -1.25331 0 255 255
0.428639 4.65592 -1.25073 0 255 255
0.443263 4.65455 -1.25073 0 255 255
0.458829 4.66274 -1.25331 0 255 255
0.4725 4.65167 -1.25073 0 255 255
0.488117 4.65977 -1.25331 0 255 255
0.501718 4.64861 -1.25073 0 255 255
0.519267 4.66612 -1.25589 0 255 255
0.532824 4.65487 -1.25331 0 255 255
0.545507 4.64367 -1.25073 0 255 255
0.560092 4.64194 -1.25073 0 255 255
0.575861 4.64974 -1.25331 0 255 255
0.589247 4.63833 -1.25073 0 255 255
0.605063 4.64603 -1.25331 0 255 255
0.617102 4.62496 -1.24814 0 255 255
0.631627 4.623 -1.24814 0 255 255
0.647487 4.63056 -1.25073 0 255 255
0.66203 4.6285 -1.25073 0 255 255
0.676567 4.6264 -1.25073 0 255 255
0.692527 4.6338 -1.25331 0 255 255
0.705622 4.62205 -1.25073 0 255 255
0.720821 4.62949 -1.25331 0 255 255
0.733844 4.61766 -1.25073 0 255 255
0.749892 4.62487 -1.25331 0 255 255
0.762843 4.61296 -1.25073 0 255 255
0.778937 4.62006 -1.25331 0 255 255
0.791812 4.60807 -1.25073 0 255 255
0.804619 4.59605 -1.24814 0 255 255
0.819053 4.59349 -1.24814 0 255 255
0.835206 4.6004 -1.25073 0 255 255
0.847898 4.58826 -1.24814 0 255 255
0.864095 4.59507 -1.25073 0 255 255
0.878526 4.59233 -1.25073 0 255 255
0.892948 4.58954 -1.25073 0 255 255
0.905489 4.57724 -1.24814 0 255 255
0.921768 4.58384 -1.25073 0 255 255
0.932294 4.562 -1.24556 0 255 255
0.947789 4.56867 -1.24814 0 255 255
0.960145 4.55622 -1.24556 0 255 255
0.976477 4.56262 -1.24814 0 255 255
0.990805 4.55953 -1.24814 0 255 255
1.00304 4.54697 -1.24556 0 255 255
1.01943 4.55322 -1.24814 0 255 255
1.03159 4.54057 -1.24556 0 255 255
1.04368 4.5279 -1.24297 0 255 255
1.0579 4.52459 -1.24297 0 255 255
1.07434 4.53065 -1.24556 0 255 255
1.08857 4.52725 -1.24556 0 255 255
1.1005 4.51442 -1.24297 0 255 255
1.1162 4.52052 -1.24556 0 255 255
1.12805 4.50762 -1.24297 0 255 255
1.14458 4.51341 -1.24556 0 255 255
1.15876 4.5098 -1.24556 0 255 255
1.17292 4.50613 -1.24556 0 255 255
1.18215 4.48374 -1.24039 0 255 255
1.19872 4.48934 -1.24297 0 255 255
1.21282 4.48555 -1.24297 0 255 255
1.2269 4.48172 -1.24297 0 255 255
1.24355 4.48715 -1.24556 0 255 255
1.25504 4.47392 -1.24297 0 255 255
1.26909 4.46996 -1.24297 0 255 255
1.28045 4.45667 -1.24039 0 255 255
1.29715 4.4619 -1.24297 0 255 255
1.31116 4.4578 -1.24297 0 255 255
1.3224 4.4444 -1.24039 0 255 255
1.33558 4.44046 -1.24039 0 255 255
1.34952 4.43624 -1.24039 0 255 255
1.36914 4.45044 -1.24556 0 255 255
1.38024 4.4369 -1.24297 0 255 255
1.39417 4.43254 -1.24297 0 255 255
1.40516 4.41893 -1.24039 0 255 255
1.41904 4.41449 -1.24039 0 255 255
1.4329 4.41001 -1.24039 0 255 255
1.44976 4.41467 -1.24297 0 255 255
1.46058 4.40093 -1.24039 0 255 255
1.4744 4.39631 -1.24039 0 255 255
1.4882 4.39166 -1.24039 0 255 255
1.50199 4.38696 -1.24039 0 255 255
1.51577 4.38222 -1.24039 0 255 255
1.52953 4.37744 -1.24039 0 255 255
1.69267 4.31698 -1.24039 0 255 255
1.69912 4.29367 -1.23522 0 255 255
1.7126 4.28831 -1.23522 0 255 255
1.72967 4.29187 -1.23781 0 255 255
1.73951 4.27747 -1.23522 0 255 255
1.7456 4.25411 -1.23005 0 255 255
1.76635 4.26645 -1.23522 0 255 255
1.77602 4.25197 -1.23264 0 255 255
1.78562 4.23747 -1.23005 0 255 255
1.80648 4.24962 -1.23522 0 255 255
1.81221 4.22616 -1.23005 0 255 255
1.82548 4.22045 -1.23005 0 255 255
1.83873 4.21469 -1.23005 0 255 255
1.85196 4.2089 -1.23005 0 255 255
1.86517 4.20306 -1.23005 0 255 255
1.87837 4.19718 -1.23005 0 255 255
1.88757 4.18245 -1.22747 0 255 255
1.8967 4.16771 -1.22488 0 255 255
1.91381 4.17051 -1.22747 0 255 255
1.92285 4.15571 -1.22488 0 255 255
1.93998 4.1584 -1.22747 0 255 255
1.95303 4.15229 -1.22747 0 255 255
1.96193 4.1374 -1.22488 0 255 255
1.97075 4.1225 -1.2223 0 255 255
1.98789 4.12499 -1.22488 0 255 255
1.99662 4.11004 -1.2223 0 255 255
2.01376 4.11242 -1.22488 0 255 255
2.0224 4.09741 -1.2223 0 255 255
2.03526 4.09104 -1.2223 0 255 255
2.03944 4.06735 -1.21713 0 255 255
2.06021 4.07853 -1.2223 0 255 255
2.06863 4.06343 -1.21972 0 255 255
2.08139 4.05691 -1.21972 0 255 255
2.08525 4.03319 -1.21455 0 255 255
2.10684 4.04375 -1.21972 0 255 255
2.11504 4.02856 -1.21713 0 255 255
2.12317 4.01336 -1.21455 0 255 255
2.13122 3.99814 -1.21196 0 255 255
2.15291 4.00845 -1.21713 0 255 255
2.1655 4.00166 -1.21713 0 255 255
2.17806 3.99484 -1.21713 0 255 255
2.18129 3.97105 -1.21196 0 255 255
2.19844 3.97262 -1.21455 0 255 255
2.21091 3.9657 -1.21455 0 255 255
2.22809 3.96715 -1.21713 0 255 255
2.23102 3.94332 -1.21196 0 255 255
2.2434 3.93629 -1.21196 0 255 255
2.25095 3.92085 -1.20938 0 255 255
2.27292 3.93048 -1.21455 0 255 255
2.27554 3.90663 -1.20938 0 255 255
2.29201 3.90819 -1.21196 0 255 255
2.29936 3.89265 -1.20938 0 255 255
2.31158 3.88541 -1.20938 0 255 255
2.31881 3.86984 -1.20679 0 255 255
2.33594 3.87081 -1.20938 0 255 255
2.34809 3.86345 -1.20938 0 255 255
2.35517 3.84782 -1.20679 0 255 255
2.36725 3.8404 -1.20679 0 255 255
2.37931 3.83294 -1.20679 0 255 255
2.39134 3.82545 -1.20679 0 255 255
2.40334 3.81792 -1.20679 0 255 255
2.41015 3.80219 -1.20421 0 255 255
2.42209 3.7946 -1.20421 0 255 255
2.42877 3.77884 -1.20163 0 255 255
2.44588 3.77931 -1.20421 0 255 255
2.44719 3.75542 -1.19904 0 255 255
2.47487 3.77194 -1.20679 0 255 255
2.47074 3.73997 -1.19904 0 255 255
2.48783 3.74023 -1.20163 0 255 255
2.49419 3.72437 -1.19904 0 255 255
2.49983 3.70894 -1.19646 0 255 255
2.51754 3.70862 -1.19904 0 255 255
2.52373 3.69272 -1.19646 0 255 255
2.52984 3.67682 -1.19387 0 255 255
2.55238 3.68473 -1.19904 0 255 255
2.55289 3.66085 -1.19387 0 255 255
2.56993 3.66072 -1.19646 0 255 255
2.57027 3.63685 -1.19129 0 255 255
2.58105 3.6292 -1.19129 0 255 255
2.59244 3.62108 -1.19129 0 255 255
2.59815 3.60508 -1.18871 0 255 255
2.61514 3.60472 -1.19129 0 255 255
2.62075 3.58868 -1.18871 0 255 255
2.63201 3.58043 -1.18871 0 255 255
2.64325 3.57214 -1.18871 0 255 255
2.64292 3.54833 -1.18354 0 255 255
2.65985 3.54774 -1.18612 0 255 255
2.67098 3.53936 -1.18612 0 255 255
2.67624 3.52326 -1.18354 0 255 255
2.68729 3.51484 -1.18354 0 255 255
2.69832 3.50638 -1.18354 0 255 255
2.70341 3.49025 -1.18095 0 255 255
2.71436 3.48173 -1.18095 0 255 255
2.72529 3.47319 -1.18095 0 255 255
2.7302 3.45703 -1.17837 0 255 255
2.74104 3.44844 -1.17837 0 255 255
2.7573 3.44783 -1.18095 0 255 255
2.7566 3.42362 -1.17579 0 255 255
2.77342 3.42245 -1.17837 0 255 255
2.77195 3.39875 -1.1732 0 255 255
2.78874 3.39749 -1.17579 0 255 255
1.85895 2.23593 -0.777827 0 255 255
1.86596 2.23008 -0.777827 0 255 255
2.82245 3.33165 -1.16803 0 255 255
2.84544 3.33747 -1.1732 0 255 255
2.84961 3.32118 -1.17062 0 255 255
2.84741 3.29759 -1.16545 0 255 255
2.87042 3.30321 -1.17062 0 255 255
2.87443 3.28691 -1.16803 0 255 255
2.88474 3.27786 -1.16803 0 255 255
2.88862 3.26155 -1.16545 0 255 255
2.89243 3.24525 -1.16287 0 255 255
2.90261 3.23614 -1.16287 0 255 255
2.91276 3.22701 -1.16287 0 255 255
2.92288 3.21784 -1.16287 0 255 255
2.91994 3.19438 -1.1577 0 255 255
2.94304 3.19941 -1.16287 0 255 255
2.93339 3.16888 -1.15511 0 255 255
2.94992 3.16672 -1.1577 0 255 255
2.94003 3.1363 -1.14994 0 255 255
2.96975 3.14812 -1.1577 0 255 255
2.96633 3.12477 -1.15253 0 255 255
2.97613 3.11543 -1.15253 0 255 255
2.9859 3.10607 -1.15253 0 255 255
3.0158 3.1175 -1.16028 0 255 255
2.99862 3.08032 -1.14994 0 255 255
3.01504 3.07779 -1.15253 0 255 255
2.99757 3.04078 -1.14219 0 255 255
3.01391 3.03821 -1.14478 0 255 255
3.02344 3.02872 -1.14478 0 255 255
3.03294 3.01921 -1.14478 0 255 255
3.04928 3.01646 -1.14736 0 255 255
3.04497 2.99332 -1.14219 0 255 255
3.06126 2.99049 -1.14478 0 255 255
3.06319 2.97467 -1.14219 0 255 255
3.07304 2.96449 -1.14219 0 255 255
3.07537 2.94814 -1.13961 0 255 255
3.08461 2.93846 -1.13961 0 255 255
3.10033 2.93594 -1.14219 0 255 255
3.1025 2.91956 -1.13961 0 255 255
3.1046 2.90321 -1.13702 0 255 255
3.11421 2.89289 -1.13702 0 255 255
3.12329 2.8831 -1.13702 0 255 255
3.11809 2.86021 -1.13186 0 255 255
3.14848 2.86992 -1.13961 0 255 255
3.15748 2.86002 -1.13961 0 255 255
3.14442 2.83124 -1.13186 0 255 255
3.1605 2.82779 -1.13444 0 255 255
3.17658 2.82427 -1.13702 0 255 255
3.18544 2.81428 -1.13702 0 255 255
3.17249 2.78514 -1.12927 0 255 255
3.18122 2.77516 -1.12927 0 255 255
3.20452 2.7778 -1.13444 0 255 255
3.20591 2.76142 -1.13186 0 255 255
3.19255 2.73249 -1.1241 0 255 255
3.19376 2.71618 -1.12152 0 255 255
3.20966 2.71237 -1.1241 0 255 255
3.20337 2.68985 -1.11893 0 255 255
3.2118 2.67978 -1.11893 0 255 255
3.22514 2.55621 -1.10084 0 255 255
3.21797 2.53412 -1.09568 0 255 255
3.22592 2.52399 -1.09568 0 255 255
3.22621 2.50792 -1.09309 0 255 255
3.21878 2.48596 -1.08792 0 255 255
3.17292 2.43467 -1.06984 0 255 255
3.15751 2.40712 -1.06208 0 255 255
3.19526 2.37301 -1.06467 0 255 255
3.23379 2.3859 -1.075 0 255 255
3.27179 2.36664 -1.08017 0 255 255
3.2949 2.36763 -1.08534 0 255 255
3.27873 2.34043 -1.07759 0 255 255
3.27819 2.32453 -1.075 0 255 255
3.28548 2.31422 -1.075 0 255 255
3.30065 2.30942 -1.07759 0 255 255
3.32375 2.31007 -1.08276 0 255 255
3.33894 2.3051 -1.08534 0 255 255
3.35414 2.30007 -1.08792 0 255 255
3.35336 2.28408 -1.08534 0 255 255
3.36052 2.27353 -1.08534 0 255 255
3.35161 2.25219 -1.08017 0 255 255
3.37434 2.25296 -1.08534 0 255 255
3.37335 2.23701 -1.08276 0 255 255
3.38037 2.2264 -1.08276 0 255 255
3.38734 2.21577 -1.08276 0 255 255
3.39429 2.20512 -1.08276 0 255 255
3.4012 2.19444 -1.08276 0 255 255
3.40808 2.18375 -1.08276 0 255 255
3.41492 2.17303 -1.08276 0 255 255
3.41356 2.15713 -1.08017 0 255 255
3.42032 2.1464 -1.08017 0 255 255
3.43525 2.14075 -1.08276 0 255 255
3.44196 2.12995 -1.08276 0 255 255
3.45686 2.12418 -1.08534 0 255 255
3.46352 2.11331 -1.08534 0 255 255
3.47014 2.10242 -1.08534 0 255 255
3.47673 2.09151 -1.08534 0 255 255
3.48328 2.08057 -1.08534 0 255 255
3.4898 2.06962 -1.08534 0 255 255
3.49628 2.05865 -1.08534 0 255 255
3.50273 2.04765 -1.08534 0 255 255
3.50915 2.03664 -1.08534 0 255 255
3.5239 2.03043 -1.08792 0 255 255
3.52188 2.01455 -1.08534 0 255 255
3.53659 2.00825 -1.08792 0 255 255
3.54288 1.99713 -1.08792 0 255 255
3.54914 1.98599 -1.08792 0 255 255
3.55536 1.97483 -1.08792 0 255 255
3.56155 1.96365 -1.08792 0 255 255
3.5677 1.95245 -1.08792 0 255 255
3.56533 1.93662 -1.08534 0 255 255
3.5799 1.92999 -1.08792 0 255 255
3.57742 1.91418 -1.08534 0 255 255
3.59195 1.90746 -1.08792 0 255 255
3.59792 1.89617 -1.08792 0 255 255
3.61243 1.88933 -1.09051 0 255 255
3.60977 1.87353 -1.08792 0 255 255
3.62422 1.8666 -1.09051 0 255 255
3.62147 1.85081 -1.08792 0 255 255
3.61865 1.83505 -1.08534 0 255 255
3.61577 1.81933 -1.08276 0 255 255
3.63011 1.81228 -1.08534 0 255 255
3.63578 1.80087 -1.08534 0 255 255
3.64142 1.78943 -1.08534 0 255 255
3.63834 1.77375 -1.08276 0 255 255
3.65259 1.76652 -1.08534 0 255 255
3.64942 1.75086 -1.08276 0 255 255
3.66362 1.74354 -1.08534 0 255 255
3.66035 1.72789 -1.08276 0 255 255
3.66576 1.71639 -1.08276 0 255 255
3.67989 1.70893 -1.08534 0 255 255
3.68524 1.69736 -1.08534 0 255 255
3.69056 1.68578 -1.08534 0 255 255
3.69583 1.67417 -1.08534 0 255 255
3.70107 1.66255 -1.08534 0 255 255
3.7151 1.65485 -1.08792 0 255 255
3.72028 1.64317 -1.08792 0 255 255
3.71658 1.6276 -1.08534 0 255 255
3.73054 1.61976 -1.08792 0 255 255
3.74448 1.61185 -1.09051 0 255 255
3.74064 1.59629 -1.08792 0 255 255
3.74564 1.58453 -1.08792 0 255 255
3.7595 1.57649 -1.09051 0 255 255
3.75552 1.56096 -1.08792 0 255 255
3.7604 1.54916 -1.08792 0 255 255
3.77419 1.54099 -1.09051 0 255 255
3.77902 1.52912 -1.09051 0 255 255
3.7838 1.51725 -1.09051 0 255 255
3.78855 1.50535 -1.09051 0 255 255
3.79326 1.49344 -1.09051 0 255 255
3.79793 1.48152 -1.09051 0 255 255
3.80257 1.46958 -1.09051 0 255 255
3.80717 1.45763 -1.09051 0 255 255
3.81173 1.44566 -1.09051 0 255 255
3.81625 1.43367 -1.09051 0 255 255
3.82074 1.42168 -1.09051 0 255 255
3.82518 1.40967 -1.09051 0 255 255
3.82959 1.39764 -1.09051 0 255 255
3.83397 1.3856 -1.09051 0 255 255
3.8383 1.37355 -1.09051 0 255 255
3.8426 1.36149 -1.09051 0 255 255
3.84685 1.34941 -1.09051 0 255 255
3.85107 1.33732 -1.09051 0 255 255
3.85549 1.32454 -1.09051 0 255 255
3.86878 1.31553 -1.09309 0 255 255
3.86351 1.30096 -1.09051 0 255 255
3.87674 1.29187 -1.09309 0 255 255
3.8716 1.27666 -1.09051 0 255 255
3.8756 1.26449 -1.09051 0 255 255
3.87955 1.25231 -1.09051 0 255 255
3.88368 1.23944 -1.09051 0 255 255
3.89677 1.23014 -1.09309 0 255 255
3.90061 1.21789 -1.09309 0 255 255
3.90421 1.20631 -1.09309 0 255 255
3.90819 1.19336 -1.09309 0 255 255
3.92117 1.18387 -1.09568 0 255 255
3.91561 1.16878 -1.09309 0 255 255
3.91926 1.15648 -1.09309 0 255 255
3.93215 1.14686 -1.09568 0 255 255
3.92645 1.13183 -1.09309 0 255 255
3.93928 1.12213 -1.09568 0 255 255
3.94278 1.10975 -1.09568 0 255 255
3.93694 1.09477 -1.09309 0 255 255
3.94968 1.08496 -1.09568 0 255 255
3.95307 1.07254 -1.09568 0 255 255
3.95642 1.06012 -1.09568 0 255 255
3.95973 1.04768 -1.09568 0 255 255
3.963 1.03524 -1.09568 0 255 255
3.96623 1.02278 -1.09568 0 255 255
3.97879 1.0127 -1.09826 0 255 255
3.97258 0.997844 -1.09568 0 255 255
3.9757 0.985358 -1.09568 0 255 255
3.97877 0.972862 -1.09568 0 255 255
3.9912 0.962623 -1.09826 0 255 255
3.9942 0.950081 -1.09826 0 255 255
3.99717 0.937529 -1.09826 0 255 255
4.00009 0.924965 -1.09826 0 255 255
3.99356 0.910246 -1.09568 0 255 255
3.9964 0.897696 -1.09568 0 255 255
3.9992 0.885138 -1.09568 0 255 255
4.00196 0.87257 -1.09568 0 255 255
4.02357 0.864049 -1.10084 0 255 255
4.01682 0.849404 -1.09826 0 255 255
4.01947 0.836784 -1.09826 0 255 255
4.02208 0.824151 -1.09826 0 255 255
4.03411 0.813421 -1.10084 0 255 255
4.03665 0.800743 -1.10084 0 255 255
4.03915 0.788058 -1.10084 0 255 255
2.26747 0.435005 -0.61761 0 255 255
2.24035 0.422508 -0.609858 0 255 255
2.26066 0.418988 -0.615026 0 255 255
2.23353 0.406303 -0.607274 0 255 255
2.23479 0.399285 -0.607274 0 255 255
2.23603 0.392262 -0.607274 0 255 255
2.23726 0.385235 -0.607274 0 255 255
2.23846 0.378204 -0.607274 0 255 255
2.27775 0.377488 -0.61761 0 255 255
2.27893 0.370331 -0.61761 0 255 255
2.28008 0.36317 -0.61761 0 255 255
2.29076 0.357494 -0.620195 0 255 255
2.29187 0.350295 -0.620195 0 255 255
2.31206 0.345953 -0.625363 0 255 255
2.29402 0.335889 -0.620195 0 255 255
2.29507 0.328681 -0.620195 0 255 255
2.28652 0.320129 -0.61761 0 255 255
2.29709 0.314253 -0.620195 0 255 255
2.29806 0.307035 -0.620195 0 255 255
2.28944 0.298565 -0.61761 0 255 255
2.26161 0.287713 -0.609858 0 255 255
2.24333 0.278229 -0.60469 0 255 255
2.23461 0.270021 -0.602106 0 255 255
2.23544 0.262999 -0.602106 0 255 255
2.23626 0.255976 -0.602106 0 255 255
2.23705 0.248948 -0.602106 0 255 255
2.23782 0.24192 -0.602106 0 255 255
2.229 0.23349 -0.599521 0 255 255
2.22011 0.225511 -0.596937 0 255 255
2.23039 0.219871 -0.599521 0 255 255
2.22149 0.211557 -0.596937 0 255 255
2.22214 0.204577 -0.596937 0 255 255
2.22277 0.197595 -0.596937 0 255 255
2.22338 0.190612 -0.596937 0 255 255
2.2336 0.18442 -0.599521 0 255 255
2.22454 0.176637 -0.596937 0 255 255
2.25398 0.171851 -0.60469 0 255 255
2.27378 0.166177 -0.609858 0 255 255
2.27429 0.159035 -0.609858 0 255 255
2.27478 0.151888 -0.609858 0 255 255
2.25596 0.143514 -0.60469 0 255 255
2.2564 0.136426 -0.60469 0 255 255
2.27611 0.130443 -0.609858 0 255 255
2.26686 0.122768 -0.607274 0 255 255
2.24794 0.114662 -0.602106 0 255 255
2.25794 0.108061 -0.60469 0 255 255
2.26792 0.101399 -0.607274 0 255 255
2.26822 0.094274 -0.607274 0 255 255
2.25885 0.086776 -0.60469 0 255 255
2.23981 0.078999 -0.599521 0 255 255
2.23039 0.071651 -0.596937 0 255 255
2.23061 0.064255 -0.596937 0 255 255
2.2308 0.057247 -0.596937 0 255 255
2.22131 0.050408 -0.594353 0 255 255
2.23111 0.043619 -0.596937 0 255 255
2.22158 0.03645 -0.594353 0 255 255
2.22168 0.029471 -0.594353 0 255 255
2.22177 0.022492 -0.594353 0 255 255
2.22183 0.015123 -0.594353 0 255 255
2.22186 0.008144 -0.594353 0 255 255
2.22188 0.001163 -0.594353 0 255 255
2.22187 -0.005817 -0.594353 0 255 255
2.22184 -0.012797 -0.594353 0 255 255
2.21213 -0.019305 -0.591769 0 255 255
2.2024 -0.026524 -0.589185 0 255 255
2.22162 -0.034124 -0.594353 0 255 255
2.25047 -0.04164 -0.602106 0 255 255
2.26 -0.048524 -0.60469 0 255 255
2.25984 -0.055624 -0.60469 0 255 255
2.25965 -0.062723 -0.60469 0 255 255
2.2691 -0.07012 -0.607274 0 255 255
2.25921 -0.07692 -0.60469 0 255 255
2.2493 -0.083658 -0.602106 0 255 255
2.25868 -0.091113 -0.60469 0 255 255
2.26804 -0.098628 -0.607274 0 255 255
2.25805 -0.105697 -0.60469 0 255 255
2.26735 -0.113272 -0.607274 0 255 255
2.27665 -0.12051 -0.609858 0 255 255
2.25697 -0.12658 -0.60469 0 255 255
2.20835 -0.130813 -0.591769 0 255 255
2.21754 -0.138739 -0.594353 0 255 255
2.2171 -0.145705 -0.594353 0 255 255
2.22626 -0.153333 -0.596937 0 255 255
2.21614 -0.159632 -0.594353 0 255 255
2.21562 -0.166594 -0.594353 0 255 255
2.21509 -0.173553 -0.594353 0 255 255
2.22416 -0.181296 -0.596937 0 255 255
2.22358 -0.188283 -0.596937 0 255 255
2.22298 -0.195267 -0.596937 0 255 255
2.21273 -0.201375 -0.594353 0 255 255
2.22171 -0.209231 -0.596937 0 255 255
2.21143 -0.215274 -0.594353 0 255 255
2.22035 -0.223186 -0.596937 0 255 255
2.21003 -0.229164 -0.594353 0 255 255
2.2189 -0.237132 -0.596937 0 255 255
2.24695 -0.247272 -0.60469 0 255 255
2.24617 -0.25433 -0.60469 0 255 255
2.24536 -0.261385 -0.60469 0 255 255
2.25412 -0.269585 -0.607274 0 255 255
2.25321 -0.277059 -0.607274 0 255 255
2.24274 -0.282927 -0.60469 0 255 255
2.261 -0.29245 -0.609858 0 255 255
2.26008 -0.299551 -0.609858 0 255 255
2.25912 -0.30665 -0.609858 0 255 255
2.23901 -0.311087 -0.60469 0 255 255
2.25715 -0.320838 -0.609858 0 255 255
2.26569 -0.329317 -0.612442 0 255 255
2.25509 -0.335014 -0.609858 0 255 255
2.19672 -0.3334 -0.594353 0 255 255
2.20521 -0.341779 -0.596937 0 255 255
2.20413 -0.348705 -0.596937 0 255 255
2.21256 -0.357167 -0.599521 0 255 255
2.20189 -0.362547 -0.596937 0 255 255
2.21027 -0.371062 -0.599521 0 255 255
2.20903 -0.378389 -0.599521 0 255 255
2.20783 -0.385327 -0.599521 0 255 255
2.2066 -0.392262 -0.599521 0 255 255
2.21487 -0.400912 -0.602106 0 255 255
2.2231 -0.409619 -0.60469 0 255 255
2.2218 -0.416601 -0.60469 0 255 255
2.21099 -0.421769 -0.602106 0 255 255
2.20966 -0.428713 -0.602106 0 255 255
2.21778 -0.437522 -0.60469 0 255 255
2.21639 -0.444488 -0.60469 0 255 255
2.20552 -0.449519 -0.602106 0 255 255
2.21355 -0.458405 -0.60469 0 255 255
2.2121 -0.465356 -0.60469 0 255 255
2.20118 -0.470285 -0.602106 0 255 255
2.19969 -0.477198 -0.602106 0 255 255
2.18875 -0.482029 -0.599521 0 255 255
3.73322 -0.835158 -1.02332 0 255 255
3.74 -0.84902 -1.02591 0 255 255
3.69966 -0.852093 -1.01557 0 255 255
3.70637 -0.865909 -1.01815 0 255 255
3.69423 -0.875321 -1.01557 0 255 255
3.70085 -0.88918 -1.01815 0 255 255
3.69804 -0.900802 -1.01815 0 255 255
3.69519 -0.912415 -1.01815 0 255 255
3.69231 -0.924019 -1.01815 0 255 255
3.69875 -0.937989 -1.02074 0 255 255
2.94727 -0.75728 -0.814005 0 255 255
2.91683 -0.759235 -0.806253 0 255 255
2.94246 -0.775783 -0.814005 0 255 255
2.92134 -0.780039 -0.808837 0 255 255
2.9282 -0.791734 -0.811421 0 255 255
2.95365 -0.808581 -0.819174 0 255 255
2.96041 -0.820437 -0.821758 0 255 255
2.93907 -0.825027 -0.81659 0 255 255
2.89929 -0.823696 -0.806253 0 255 255
2.94311 -0.846147 -0.819174 0 255 255
2.86623 -0.833802 -0.798501 0 255 255
2.87286 -0.84553 -0.801085 0 255 255
2.86093 -0.851794 -0.798501 0 255 255
2.85824 -0.860778 -0.798501 0 255 255
2.83704 -0.864124 -0.793332 0 255 255
2.84355 -0.875876 -0.795916 0 255 255
2.8314 -0.882426 -0.793332 0 255 255
2.83783 -0.89422 -0.795916 0 255 255
2.8258 -0.900199 -0.793332 0 255 255
2.82296 -0.909072 -0.793332 0 255 255
2.81091 -0.914946 -0.790748 0 255 255
2.81719 -0.926791 -0.793332 0 255 255
2.81427 -0.935637 -0.793332 0 255 255
2.80216 -0.941397 -0.790748 0 255 255
2.79919 -0.950196 -0.790748 0 255 255
2.79619 -0.958985 -0.790748 0 255 255
2.78403 -0.964602 -0.788164 0 255 255
2.78099 -0.973344 -0.788164 0 255 255
2.78685 -0.985782 -0.790748 0 255 255
2.77465 -0.991282 -0.788164 0 255 255
2.78043 -1.00376 -0.790748 0 255 255
2.76836 -1.0087 -0.788164 0 255 255
2.75611 -1.01405 -0.78558 0 255 255
2.75291 -1.02271 -0.78558 0 255 255
2.75873 -1.03474 -0.788164 0 255 255
2.74643 -1.03998 -0.78558 0 255 255
2.74315 -1.04861 -0.78558 0 255 255
2.73985 -1.05722 -0.78558 0 255 255
2.72751 -1.06231 -0.782996 0 255 255
2.73315 -1.07441 -0.78558 0 255 255
2.72059 -1.07991 -0.782996 0 255 255
2.71719 -1.08845 -0.782996 0 255 255
2.72271 -1.1006 -0.78558 0 255 255
2.71029 -1.1055 -0.782996 0 255 255
2.70681 -1.11401 -0.782996 0 255 255
2.70329 -1.12251 -0.782996 0 255 255
2.69975 -1.13099 -0.782996 0 255 255
2.70509 -1.14323 -0.78558 0 255 255
2.6926 -1.14793 -0.782996 0 255 255
2.68898 -1.15639 -0.782996 0 255 255
2.68513 -1.1653 -0.782996 0 255 255
2.68145 -1.17373 -0.782996 0 255 255
2.67775 -1.18215 -0.782996 0 255 255
2.67402 -1.19055 -0.782996 0 255 255
2.67027 -1.19895 -0.782996 0 255 255
2.67529 -1.21131 -0.78558 0 255 255
2.66268 -1.2157 -0.782996 0 255 255
2.65885 -1.22406 -0.782996 0 255 255
2.65499 -1.23241 -0.782996 0 255 255
2.65111 -1.24074 -0.782996 0 255 255
2.65593 -1.25319 -0.78558 0 255 255
2.64326 -1.25738 -0.782996 0 255 255
2.63908 -1.26613 -0.782996 0 255 255
2.63509 -1.27442 -0.782996 0 255 255
2.63107 -1.28269 -0.782996 0 255 255
2.62703 -1.29095 -0.782996 0 255 255
2.63161 -1.30348 -0.78558 0 255 255
2.62751 -1.31175 -0.78558 0 255 255
2.61474 -1.31565 -0.782996 0 255 255
2.61921 -1.32823 -0.78558 0 255 255
2.61503 -1.33645 -0.78558 0 255 255
2.61082 -1.34466 -0.78558 0 255 255
2.60634 -1.35331 -0.78558 0 255 255
2.60208 -1.36149 -0.78558 0 255 255
2.60633 -1.37416 -0.788164 0 255 255
2.59347 -1.37781 -0.78558 0 255 255
2.59765 -1.39051 -0.788164 0 255 255
2.60177 -1.40325 -0.790748 0 255 255
2.63979 -1.43448 -0.803669 0 255 255
2.63527 -1.44277 -0.803669 0 255 255
2.63918 -1.45571 -0.806253 0 255 255
2.64304 -1.46868 -0.808837 0 255 255
2.63815 -1.47744 -0.808837 0 255 255
2.59143 -1.46198 -0.795916 0 255 255
2.57843 -1.46535 -0.793332 0 255 255
2.5822 -1.47824 -0.795916 0 255 255
2.56917 -1.48152 -0.793332 0 255 255
5.74036 -3.40702 -1.78564 0 255 255
5.72134 -3.42008 -1.78306 0 255 255
5.71824 -3.44402 -1.78564 0 255 255
3.54944 -2.37345 -1.14219 0 255 255
3.50991 -2.36301 -1.13186 0 255 255
3.47848 -2.35777 -1.1241 0 255 255
3.39924 -2.31967 -1.10084 0 255 255
3.37601 -2.3194 -1.09568 0 255 255
3.32898 -2.30252 -1.08276 0 255 255
3.29002 -2.29089 -1.07242 0 255 255
3.25077 -2.2796 -1.06208 0 255 255
3.21202 -2.26751 -1.05175 0 255 255
3.16551 -2.24961 -1.03883 0 255 255
3.127 -2.23706 -1.02849 0 255 255
3.09644 -2.22994 -1.02074 0 255 255
3.05032 -2.21131 -1.00782 0 255 255
3.00434 -2.19241 -0.994896 0 255 255
2.97408 -2.18468 -0.987143 0 255 255
2.94352 -2.17729 -0.979391 0 255 255
2.91342 -2.16922 -0.971638 0 255 255
2.86794 -2.1494 -0.958717 0 255 255
2.86888 -2.16421 -0.961302 0 255 255
2.87746 -2.1849 -0.96647 0 255 255
2.87019 -2.19443 -0.96647 0 255 255
2.86329 -2.20343 -0.96647 0 255 255
2.86399 -2.21833 -0.969054 0 255 255
2.86462 -2.23326 -0.971638 0 255 255
2.87279 -2.25418 -0.976807 0 255 255
2.85811 -2.2572 -0.974222 0 255 255
2.85857 -2.27218 -0.976807 0 255 255
2.85896 -2.28719 -0.979391 0 255 255
2.85176 -2.29616 -0.979391 0 255 255
2.84413 -2.3056 -0.979391 0 255 255
2.84436 -2.32063 -0.981975 0 255 255
2.83706 -2.32956 -0.981975 0 255 255
2.83013 -2.33796 -0.981975 0 255 255
2.81494 -2.34116 -0.979391 0 255 255
2.81498 -2.35619 -0.981975 0 255 255
2.80756 -2.36502 -0.981975 0 255 255
2.78538 -2.36134 -0.976807 0 255 255
2.7706 -2.36381 -0.974222 0 255 255
2.77049 -2.37879 -0.976807 0 255 255
2.763 -2.38748 -0.976807 0 255 255
2.75549 -2.39615 -0.976807 0 255 255
2.74026 -2.39891 -0.974222 0 255 255
2.73271 -2.40751 -0.974222 0 255 255
2.72471 -2.41656 -0.974222 0 255 255
2.71753 -2.42463 -0.974222 0 255 255
2.70271 -2.4267 -0.971638 0 255 255
2.69507 -2.43518 -0.971638 0 255 255
2.68026 -2.43714 -0.969054 0 255 255
2.67259 -2.44555 -0.969054 0 255 255
2.66446 -2.4544 -0.969054 0 255 255
2.65674 -2.46275 -0.969054 0 255 255
2.64899 -2.47109 -0.969054 0 255 255
2.64122 -2.4794 -0.969054 0 255 255
