ply
format ascii 1.0
element vertex 1285
property float x
property float y
property float z
property uchar red
property uchar green
property uchar blue
end_header
-0.420768 -0.284667 -0.044927 0 255 255
-0.421661 -0.283344 -0.044927 0 255 255
-0.43917 -0.293001 -0.046689 0 255 255
-0.449323 -0.295712 -0.04757 0 255 255
-0.475264 -0.310649 -0.050213 0 255 255
-0.484593 -0.314578 -0.051094 0 255 255
-0.477207 -0.307657 -0.050213 0 255 255
-0.453004 -0.290042 -0.04757 0 255 255
-0.453913 -0.288618 -0.04757 0 255 255
-0.446444 -0.281794 -0.046689 0 255 255
-0.464207 -0.290971 -0.048451 0 255 255
-0.431292 -0.268456 -0.044927 0 255 255
-0.415187 -0.256625 -0.043165 0 255 255
-0.415991 -0.255319 -0.043165 0 255 255
-0.459321 -0.279931 -0.04757 0 255 255
-0.514225 -0.304597 -0.052856 0 255 255
-0.498007 -0.29288 -0.051094 0 255 255
-0.490364 -0.265913 -0.049332 0 255 255
-0.464926 -0.250128 -0.046689 0 255 255
-0.46571 -0.248666 -0.046689 0 255 255
-0.42248 -0.223881 -0.042285 0 255 255
-0.431998 -0.227189 -0.043165 0 255 255
-0.459244 -0.239577 -0.045808 0 255 255
-0.477686 -0.247292 -0.04757 0 255 255
-0.4696 -0.241238 -0.046689 0 255 255
-0.470356 -0.239762 -0.046689 0 255 255
-0.471107 -0.238283 -0.046689 0 255 255
-0.46295 -0.232334 -0.045808 0 255 255
-0.436927 -0.217558 -0.043165 0 255 255
-0.446539 -0.220596 -0.044046 0 255 255
-0.429341 -0.210425 -0.042285 0 255 255
-0.465833 -0.226498 -0.045808 0 255 255
-0.45757 -0.220706 -0.044927 0 255 255
-0.431305 -0.206369 -0.042285 0 255 255
-0.499323 -0.225453 -0.048451 0 255 255
-0.521846 -0.197085 -0.049332 0 255 255
-0.522463 -0.195445 -0.049332 0 255 255
-0.523681 -0.192158 -0.049332 0 255 255
-0.514952 -0.18702 -0.048451 0 255 255
-0.506164 -0.182031 -0.04757 0 255 255
-0.45043 -0.160391 -0.042285 0 255 255
-0.441537 -0.155663 -0.041404 0 255 255
-0.423214 -0.14771 -0.039642 0 255 255
-0.423676 -0.14638 -0.039642 0 255 255
-0.405283 -0.138602 -0.03788 0 255 255
-0.377411 -0.127747 -0.035237 0 255 255
-0.406146 -0.136052 -0.03788 0 255 255
-0.416027 -0.13791 -0.038761 0 255 255
-0.444853 -0.145916 -0.041404 0 255 255
-0.435835 -0.141443 -0.040523 0 255 255
-0.445786 -0.14304 -0.041404 0 255 255
-0.427245 -0.135612 -0.039642 0 255 255
-0.437172 -0.137253 -0.040523 0 255 255
-0.447114 -0.138833 -0.041404 0 255 255
-0.457071 -0.140351 -0.042285 0 255 255
-0.476572 -0.144703 -0.044046 0 255 255
-0.477024 -0.143205 -0.044046 0 255 255
-0.467922 -0.138872 -0.043165 0 255 255
-0.468356 -0.137401 -0.043165 0 255 255
-0.478353 -0.138703 -0.044046 0 255 255
-0.450059 -0.128967 -0.041404 0 255 255
-0.440878 -0.124839 -0.040523 0 255 255
-0.422082 -0.118086 -0.038761 0 255 255
-0.41285 -0.114105 -0.03788 0 255 255
-0.394006 -0.107492 -0.036118 0 255 255
-0.413578 -0.111437 -0.03788 0 255 255
-0.394674 -0.105015 -0.036118 0 255 255
-0.404636 -0.106305 -0.036999 0 255 255
-0.404968 -0.105033 -0.036999 0 255 255
-0.434246 -0.111172 -0.039642 0 255 255
-0.44425 -0.112248 -0.040523 0 255 255
-0.422027 -0.0732 -0.03788 0 255 255
-0.383178 -0.063985 -0.034356 0 255 255
-0.383377 -0.062781 -0.034356 0 255 255
-0.363902 -0.058418 -0.032594 0 255 255
-0.403445 -0.063466 -0.036118 0 255 255
-0.374107 -0.057647 -0.033475 0 255 255
-0.374286 -0.056472 -0.033475 0 255 255
-0.354753 -0.052385 -0.031713 0 255 255
-0.345057 -0.049847 -0.030832 0 255 255
-0.384665 -0.054335 -0.034356 0 255 255
-0.394702 -0.054489 -0.035237 0 255 255
-0.375136 -0.05052 -0.033475 0 255 255
-0.385169 -0.05064 -0.034356 0 255 255
-0.385326 -0.04943 -0.034356 0 255 255
-0.375596 -0.046983 -0.033475 0 255 255
-0.355965 -0.043392 -0.031713 0 255 255
-0.336317 -0.039925 -0.029952 0 255 255
-0.33644 -0.038868 -0.029952 0 255 255
-0.34646 -0.038923 -0.030832 0 255 255
-0.326776 -0.035672 -0.029071 0 255 255
-0.316981 -0.033596 -0.02819 0 255 255
-0.297267 -0.030562 -0.026428 0 255 255
-0.307273 -0.030616 -0.027309 0 255 255
-0.297453 -0.028694 -0.026428 0 255 255
-0.297542 -0.027759 -0.026428 0 255 255
-0.297627 -0.026824 -0.026428 0 255 255
-0.307634 -0.026752 -0.027309 0 255 255
-0.287864 -0.024122 -0.025547 0 255 255
-0.307796 -0.024819 -0.027309 0 255 255
-0.307876 -0.023798 -0.027309 0 255 255
-0.30795 -0.022831 -0.027309 0 255 255
-0.30802 -0.021863 -0.027309 0 255 255
-0.298149 -0.020221 -0.026428 0 255 255
-0.308151 -0.019927 -0.027309 0 255 255
-0.29827 -0.018347 -0.026428 0 255 255
-0.30827 -0.017991 -0.027309 0 255 255
-0.318271 -0.017571 -0.02819 0 255 255
-0.318325 -0.016571 -0.02819 0 255 255
-0.298477 -0.014598 -0.026428 0 255 255
-0.318423 -0.014571 -0.02819 0 255 255
-0.328419 -0.013995 -0.029071 0 255 255
-0.358321 -0.014141 -0.031713 0 255 255
-0.368319 -0.013377 -0.032594 0 255 255
-0.41409 0.059671 -0.036999 0 255 255
-0.423755 0.062424 -0.03788 0 255 255
-0.443257 0.06672 -0.039642 0 255 255
-0.443045 0.068112 -0.039642 0 255 255
-0.510649 0.086828 -0.045808 0 255 255
-0.540413 0.391625 -0.059022 0 255 255
-0.547227 0.399191 -0.059903 0 255 255
-0.521884 0.383222 -0.05726 0 255 255
-0.504656 0.373017 -0.055498 0 255 255
-0.503482 0.374601 -0.055498 0 255 255
-0.486357 0.364239 -0.053737 0 255 255
-0.461347 0.347776 -0.051094 0 255 255
-0.476123 0.361266 -0.052856 0 255 255
-0.474986 0.36276 -0.052856 0 255 255
-0.465946 0.35818 -0.051975 0 255 255
-0.464882 0.359561 -0.051975 0 255 255
-0.432309 0.336543 -0.048451 0 255 255
-0.43909 0.344043 -0.049332 0 255 255
-0.414543 0.326916 -0.046689 0 255 255
-0.397909 0.315832 -0.044927 0 255 255
-0.396915 0.31708 -0.044927 0 255 255
-0.395917 0.318326 -0.044927 0 255 255
-0.402659 0.325834 -0.045808 0 255 255
-0.401633 0.327097 -0.045808 0 255 255
-0.400603 0.328357 -0.045808 0 255 255
-0.428067 0.357666 -0.049332 0 255 255
-0.449813 0.378241 -0.051975 0 255 255
-0.479038 0.405392 -0.055498 0 255 255
-0.477762 0.406895 -0.055498 0 255 255
-0.491608 0.421359 -0.05726 0 255 255
-0.482739 0.416395 -0.056379 0 255 255
-0.466384 0.40485 -0.054618 0 255 255
-0.495116 0.432527 -0.058141 0 255 255
-0.486274 0.427503 -0.05726 0 255 255
-0.477468 0.422428 -0.056379 0 255 255
-0.483578 0.43055 -0.05726 0 255 255
-0.459967 0.412125 -0.054618 0 255 255
-0.45867 0.413568 -0.054618 0 255 255
-0.442614 0.40162 -0.052856 0 255 255
-0.433995 0.396292 -0.051975 0 255 255
-0.425413 0.390913 -0.051094 0 255 255
-0.424183 0.392248 -0.051094 0 255 255
-0.437533 0.40715 -0.052856 0 255 255
-0.428981 0.401714 -0.051975 0 255 255
-0.434966 0.409891 -0.052856 0 255 255
-0.440904 0.41811 -0.053737 0 255 255
-0.446795 0.42637 -0.054618 0 255 255
-0.445528 0.427694 -0.054618 0 255 255
-0.45851 0.442933 -0.056379 0 255 255
-0.449898 0.437506 -0.055498 0 255 255
-0.448521 0.438918 -0.055498 0 255 255
-0.369424 0.431166 -0.050213 0 255 255
-0.374525 0.43991 -0.051094 0 255 255
-0.353841 0.418269 -0.048451 0 255 255
-0.352525 0.419379 -0.048451 0 255 255
-0.338434 0.405194 -0.046689 0 255 255
-0.330798 0.39859 -0.045808 0 255 255
-0.323207 0.391942 -0.044927 0 255 255
-0.321974 0.392956 -0.044927 0 255 255
-0.314449 0.38624 -0.044046 0 255 255
-0.313302 0.387172 -0.044046 0 255 255
-0.312084 0.388154 -0.044046 0 255 255
-0.310863 0.389133 -0.044046 0 255 255
-0.303446 0.382305 -0.043165 0 255 255
-0.302243 0.383257 -0.043165 0 255 255
-0.294894 0.376363 -0.042285 0 255 255
-0.29983 0.385148 -0.043165 0 255 255
-0.298618 0.386088 -0.043165 0 255 255
-0.291334 0.379126 -0.042285 0 255 255
-0.290142 0.380039 -0.042285 0 255 255
-0.288946 0.380949 -0.042285 0 255 255
-0.293743 0.38981 -0.043165 0 255 255
-0.286547 0.382757 -0.042285 0 255 255
-0.279399 0.375662 -0.041404 0 255 255
-0.284136 0.38455 -0.042285 0 255 255
-0.282927 0.38544 -0.042285 0 255 255
-0.281715 0.386327 -0.042285 0 255 255
-0.274656 0.379144 -0.041404 0 255 255
-0.279282 0.38809 -0.042285 0 255 255
-0.272268 0.380862 -0.041404 0 255 255
-0.276906 0.389788 -0.042285 0 255 255
-0.264193 0.374379 -0.040523 0 255 255
-0.268734 0.383364 -0.041404 0 255 255
-0.27322 0.392381 -0.042285 0 255 255
-0.277652 0.40143 -0.043165 0 255 255
-0.270749 0.39409 -0.042285 0 255 255
-0.263895 0.386711 -0.041404 0 255 255
-0.262679 0.387538 -0.041404 0 255 255
-0.26146 0.388361 -0.041404 0 255 255
-0.260239 0.389181 -0.041404 0 255 255
-0.253504 0.381698 -0.040523 0 255 255
-0.263273 0.399123 -0.042285 0 255 255
-0.256559 0.391616 -0.041404 0 255 255
-0.26076 0.400769 -0.042285 0 255 255
-0.254094 0.39322 -0.041404 0 255 255
-0.258237 0.4024 -0.042285 0 255 255
-0.251618 0.394809 -0.041404 0 255 255
-0.245049 0.387181 -0.040523 0 255 255
-0.243832 0.387948 -0.040523 0 255 255
-0.247886 0.397163 -0.041404 0 255 255
-0.241389 0.389473 -0.040523 0 255 255
-0.245386 0.398713 -0.041404 0 255 255
-0.238937 0.390982 -0.040523 0 255 255
-0.115732 0.25454 -0.01468 0 255 255
-0.102618 0.227591 -0.013107 0 255 255
-0.126359 0.282611 -0.016253 0 255 255
-0.105233 0.237361 -0.013631 0 255 255
-0.100468 0.228548 -0.013107 0 255 255
-0.09975 0.228863 -0.013107 0 255 255
-0.09903 0.229175 -0.013107 0 255 255
-0.102242 0.238664 -0.013631 0 255 255
-0.093685 0.220601 -0.012583 0 255 255
-0.092991 0.220894 -0.012583 0 255 255
-0.092297 0.221185 -0.012583 0 255 255
-0.079576 0.194027 -0.01101 0 255 255
-0.078966 0.194276 -0.01101 0 255 255
-0.078355 0.194523 -0.01101 0 255 255
-6.65981 19.6643 -1.08999 0 255 255
-6.58848 19.6567 -1.08841 0 255 255
-6.54242 19.7247 -1.09103 0 255 255
-6.48975 19.7736 -1.09261 0 255 255
-6.42144 19.7749 -1.09156 0 255 255
-6.35011 19.7664 -1.08999 0 255 255
-6.29403 19.8053 -1.09103 0 255 255
-6.23478 19.8345 -1.09156 0 255 255
-6.1665 19.8349 -1.09051 0 255 255
-6.1071 19.8638 -1.09103 0 255 255
-6.05685 19.9105 -1.09261 0 255 255
-6.00578 19.9676 -1.0947 0 255 255
-5.93384 19.9683 -1.09365 0 255 255
-5.85982 19.9485 -1.09156 0 255 255
-5.79991 19.9764 -1.09208 0 255 255
-5.75089 20.0425 -1.0947 0 255 255
-5.677 20.0221 -1.09261 0 255 255
-5.61138 20.0302 -1.09208 0 255 255
-5.56258 20.0853 -1.09418 0 255 255
-5.51527 20.1604 -1.09732 0 255 255
-5.45359 20.1979 -1.09837 0 255 255
-5.38496 20.1956 -1.09732 0 255 255
-5.32502 20.2115 -1.09732 0 255 255
-5.24641 20.1701 -1.09418 0 255 255
-5.19296 20.2252 -1.09628 0 255 255
-5.1392 20.2802 -1.09837 0 255 255
-5.05366 20.209 -1.09365 0 255 255
-5.00211 20.2733 -1.09628 0 255 255
-4.93603 20.2792 -1.09575 0 255 255
-4.87696 20.314 -1.0968 0 255 255
-4.81311 20.3292 -1.0968 0 255 255
-4.7515 20.354 -1.09732 0 255 255
-4.6853 20.3591 -1.0968 0 255 255
-4.63014 20.4126 -1.0989 0 255 255
-4.55946 20.3978 -1.09732 0 255 255
-4.49535 20.4121 -1.09732 0 255 255
-4.43967 20.4651 -1.09942 0 255 255
-4.3691 20.4497 -1.09785 0 255 255
-4.30278 20.4535 -1.09732 0 255 255
-4.23445 20.4474 -1.09628 0 255 255
-4.18017 20.5095 -1.0989 0 255 255
-0.431993 2.15408 -0.115342 0 255 255
-0.419796 2.12597 -0.113769 0 255 255
-0.415018 2.13708 -0.114294 0 255 255
-3.9614 20.7664 -1.10991 0 255 255
-3.89247 20.7591 -1.10886 0 255 255
-3.83448 20.7902 -1.10991 0 255 255
-3.77093 20.812 -1.11043 0 255 255
-3.70727 20.8336 -1.11096 0 255 255
-3.64868 20.8845 -1.11305 0 255 255
-3.58643 20.9155 -1.1141 0 255 255
-0.362839 2.15668 -0.114818 0 255 255
-3.44844 20.8982 -1.112 0 255 255
-3.39712 20.9977 -1.11672 0 255 255
-3.33481 21.0077 -1.11672 0 255 255
-3.26266 20.9786 -1.11463 0 255 255
-3.19523 20.9788 -1.1141 0 255 255
-3.13225 21.0085 -1.11515 0 255 255
-3.07632 21.0874 -1.11882 0 255 255
-3.00865 21.0871 -1.1183 0 255 255
-2.94929 21.1459 -1.12092 0 255 255
-2.88823 21.1947 -1.12302 0 255 255
-2.82032 21.1937 -1.12249 0 255 255
-0.280388 2.15887 -0.114294 0 255 255
-0.268584 2.12011 -0.112197 0 255 255
-0.264371 2.14077 -0.113245 0 255 255
-0.258836 2.1515 -0.113769 0 255 255
-0.250915 2.14239 -0.113245 0 255 255
-0.243052 2.13324 -0.112721 0 255 255
-0.236349 2.134 -0.112721 0 255 255
-0.230017 2.13469 -0.112721 0 255 255
-0.223309 2.1354 -0.112721 0 255 255
-0.2166 2.13609 -0.112721 0 255 255
-0.209887 2.13676 -0.112721 0 255 255
-0.201284 2.11753 -0.111672 0 255 255
-0.197372 2.14798 -0.113245 0 255 255
-0.188857 2.1287 -0.112197 0 255 255
-0.183021 2.13923 -0.112721 0 255 255
-0.175479 2.12984 -0.112197 0 255 255
-0.166421 2.10052 -0.110624 0 255 255
-0.161336 2.12094 -0.111672 0 255 255
-0.153219 2.10152 -0.110624 0 255 255
-0.145921 2.09203 -0.110099 0 255 255
-1.32458 20.8792 -1.09837 0 255 255
-1.19337 20.8871 -1.09837 0 255 255
-0.805577 21.0656 -1.10676 0 255 255
-0.450334 17.4302 -0.915399 0 255 255
0.832332 2.23688 -0.125304 0 255 255
0.825308 2.19686 -0.123207 0 255 255
0.832205 2.19426 -0.123207 0 255 255
0.842665 2.20096 -0.123731 0 255 255
0.827975 2.14241 -0.120585 0 255 255
0.827444 2.12119 -0.119537 0 255 255
9.15612 23.0434 -1.3018 0 255 255
9.1913 22.9219 -1.29655 0 255 255
9.28199 22.9392 -1.29917 0 255 255
9.35402 22.9099 -1.29917 0 255 255
9.44117 22.9173 -1.30127 0 255 255
9.52461 22.9152 -1.30284 0 255 255
9.61972 22.9404 -1.30599 0 255 255
9.71496 22.9762 -1.30966 0 255 255
9.76359 22.8904 -1.30651 0 255 255
9.85915 22.9147 -1.30966 0 255 255
9.94698 22.9202 -1.31176 0 255 255
10.0109 22.8706 -1.31071 0 255 255
10.0706 22.8116 -1.30913 0 255 255
10.1463 22.789 -1.30966 0 255 255
10.2138 22.7479 -1.30913 0 255 255
10.2852 22.7157 -1.30913 0 255 255
10.3482 22.6651 -1.30809 0 255 255
10.4235 22.6415 -1.30861 0 255 255
10.482 22.5815 -1.30704 0 255 255
10.5613 22.5666 -1.30809 0 255 255
10.6663 22.6055 -1.31228 0 255 255
10.8059 22.7162 -1.32067 0 255 255
10.9074 22.7452 -1.32434 0 255 255
10.9832 22.7198 -1.32486 0 255 255
11.037 22.6492 -1.32277 0 255 255
11.1389 22.6772 -1.32644 0 255 255
11.2633 22.7495 -1.33273 0 255 255
11.3525 22.7497 -1.33483 0 255 255
11.3835 22.6337 -1.33011 0 255 255
11.581 22.8472 -1.34479 0 255 255
11.6936 22.8907 -1.3495 0 255 255
11.7935 22.9181 -1.35318 0 255 255
11.9666 23.076 -1.36471 0 255 255
12.0251 23.0117 -1.36314 0 255 255
12.0834 22.9473 -1.36156 0 255 255
12.1273 22.8563 -1.35842 0 255 255
12.185 22.7917 -1.35685 0 255 255
12.2423 22.7269 -1.35527 0 255 255
12.2898 22.6444 -1.35265 0 255 255
12.3657 22.6145 -1.35318 0 255 255
12.4077 22.523 -1.35003 0 255 255
12.4348 22.4054 -1.34531 0 255 255
12.4808 22.3226 -1.34269 0 255 255
12.5215 22.2311 -1.33954 0 255 255
12.6011 22.209 -1.34059 0 255 255
12.6361 22.1086 -1.33692 0 255 255
12.6657 21.9996 -1.33273 0 255 255
12.7147 21.9251 -1.33063 0 255 255
12.7583 21.842 -1.32801 0 255 255
12.8319 21.8104 -1.32853 0 255 255
12.88 21.7356 -1.32644 0 255 255
12.9431 21.6864 -1.32591 0 255 255
12.97 21.5772 -1.32172 0 255 255
13.0185 21.513 -1.32015 0 255 255
13.0808 21.4635 -1.31962 0 255 255
13.1429 21.4137 -1.3191 0 255 255
13.1891 21.3384 -1.317 0 255 255
13.272 21.3223 -1.31857 0 255 255
13.3283 21.2635 -1.31752 0 255 255
13.3737 21.1878 -1.31543 0 255 255
13.4455 21.1541 -1.31595 0 255 255
13.4904 21.0781 -1.31385 0 255 255
13.5457 21.0188 -1.31281 0 255 255
13.6171 20.9846 -1.31333 0 255 255
13.683 20.9417 -1.31333 0 255 255
13.7158 20.8485 -1.31018 0 255 255
13.7702 20.7887 -1.30913 0 255 255
13.8576 20.7786 -1.31123 0 255 255
13.9116 20.7183 -1.31018 0 255 255
13.9599 20.6497 -1.30861 0 255 255
14.0359 20.6223 -1.30966 0 255 255
14.1063 20.5863 -1.31018 0 255 255
14.1879 20.5665 -1.31176 0 255 255
14.1955 20.4399 -1.30651 0 255 255
14.3169 20.477 -1.31176 0 255 255
14.4386 20.5136 -1.317 0 255 255
14.63 20.6474 -1.32853 0 255 255
14.6912 20.6039 -1.32853 0 255 255
9.2122 12.8343 -0.829416 0 255 255
14.8847 20.6002 -1.3343 0 255 255
14.9317 20.5291 -1.33273 0 255 255
9.36225 12.7872 -0.832038 0 255 255
15.1019 20.4912 -1.3364 0 255 255
15.2138 20.5078 -1.34059 0 255 255
15.308 20.4999 -1.34321 0 255 255
10.0982 13.4349 -0.882369 0 255 255
10.1283 13.3872 -0.88132 0 255 255
15.6434 20.4089 -1.35003 0 255 255
15.7562 20.423 -1.35422 0 255 255
10.21 13.1484 -0.87398 0 255 255
10.3435 13.2343 -0.881845 0 255 255
10.4468 13.2802 -0.887087 0 255 255
10.4264 13.1691 -0.881845 0 255 255
10.4989 13.1753 -0.884466 0 255 255
10.6527 13.2825 -0.893903 0 255 255
10.7634 13.3344 -0.89967 0 255 255
10.843 13.347 -0.902816 0 255 255
10.9481 13.3902 -0.908059 0 255 255
10.8759 13.217 -0.898622 0 255 255
10.86 13.1135 -0.893903 0 255 255
11.4446 13.7314 -0.938467 0 255 255
11.0577 13.1827 -0.90334 0 255 255
11.1418 13.2033 -0.90701 0 255 255
11.1186 13.0921 -0.901767 0 255 255
11.1532 13.0495 -0.901243 0 255 255
11.2332 13.0598 -0.904389 0 255 255
11.5095 13.2963 -0.923263 0 255 255
11.1576 12.8083 -0.891806 0 255 255
11.1254 12.6906 -0.886039 0 255 255
12.0505 13.659 -0.956293 0 255 255
12.1265 13.6584 -0.958914 0 255 255
12.1627 13.6128 -0.95839 0 255 255
12.1944 13.4769 -0.954196 0 255 255
12.0427 13.1423 -0.935846 0 255 255
12.1313 13.1558 -0.939516 0 255 255
12.7113 13.6121 -0.977788 0 255 255
12.9181 13.7468 -0.990371 0 255 255
13.2357 13.9963 -1.01134 0 255 255
18.9246 19.8867 -1.44125 0 255 255
18.9456 19.7839 -1.43811 0 255 255
18.9938 19.7099 -1.43706 0 255 255
19.0764 19.6716 -1.43863 0 255 255
19.1172 19.5902 -1.43706 0 255 255
13.3432 13.5876 -0.999808 0 255 255
13.7649 13.9292 -1.02812 0 255 255
13.4213 13.4965 -0.999284 0 255 255
14.0923 14.0825 -1.04595 0 255 255
13.9806 13.8833 -1.03441 0 255 255
14.1023 13.9165 -1.04018 0 255 255
14.2672 13.991 -1.04909 0 255 255
14.1537 13.7928 -1.03756 0 255 255
12.9499 12.4663 -0.94371 0 255 255
12.9241 12.3635 -0.938991 0 255 255
12.999 12.3572 -0.941613 0 255 255
13.0087 12.2889 -0.939516 0 255 255
7.40371 6.81999 -0.528478 0 255 255
7.41036 6.78321 -0.527429 0 255 255
7.40208 6.73302 -0.525332 0 255 255
7.38616 6.67625 -0.52271 0 255 255
7.10249 6.37942 -0.501215 0 255 255
7.1672 6.39697 -0.504361 0 255 255
7.29186 6.46719 -0.511701 0 255 255
7.21474 6.35842 -0.504885 0 255 255
7.1821 6.28966 -0.501215 0 255 255
7.21689 6.28018 -0.502263 0 255 255
7.44809 6.44037 -0.516943 0 255 255
7.46829 6.41694 -0.516943 0 255 255
7.54916 6.44532 -0.521138 0 255 255
7.6836 6.51847 -0.529002 0 255 255
7.70404 6.4943 -0.529002 0 255 255
7.63254 6.39312 -0.52271 0 255 255
7.50675 6.24773 -0.512749 0 255 255
7.52634 6.22412 -0.512749 0 255 255
2.82391 2.32041 -0.191888 0 255 255
2.80024 2.28627 -0.189791 0 255 255
2.83843 2.30262 -0.191888 0 255 255
2.81455 2.26863 -0.189791 0 255 255
8.25965 6.57237 -0.554167 0 255 255
8.24892 6.52162 -0.55207 0 255 255
8.26936 6.49567 -0.55207 0 255 255
15.102 11.6343 -1.00086 0 255 255
15.0953 11.4787 -0.995614 0 255 255
15.195 11.4794 -0.999808 0 255 255
8.74107 6.52014 -0.572517 0 255 255
15.4541 11.2982 -1.00505 0 255 255
15.5137 11.2672 -1.00662 0 255 255
16.2857 11.1427 -1.03598 0 255 255
5.4172 3.2963 -0.33292 0 255 255
5.41044 3.26894 -0.331871 0 255 255
5.33504 3.20055 -0.326629 0 255 255
5.40513 3.21955 -0.330298 0 255 255
5.4496 3.22288 -0.332396 0 255 255
5.44247 3.19564 -0.331347 0 255 255
5.46974 3.18858 -0.332396 0 255 255
5.38466 3.11636 -0.326629 0 255 255
5.39442 3.09942 -0.326629 0 255 255
5.52676 3.12944 -0.333444 0 255 255
5.53656 3.11206 -0.333444 0 255 255
5.53759 3.08978 -0.33292 0 255 255
5.52189 3.03569 -0.330823 0 255 255
5.52263 3.01354 -0.330298 0 255 255
5.98126 3.21519 -0.356513 0 255 255
5.99133 3.19638 -0.356513 0 255 255
5.60562 2.85621 -0.330298 0 255 255
5.33829 2.69891 -0.314046 0 255 255
5.37353 2.69555 -0.315619 0 255 255
5.48031 2.7276 -0.321386 0 255 255
5.50676 2.71922 -0.322434 0 255 255
5.50631 2.69751 -0.32191 0 255 255
5.50577 2.67583 -0.321386 0 255 255
5.50516 2.65419 -0.320861 0 255 255
5.45941 2.61103 -0.317716 0 255 255
5.5127 2.61527 -0.320337 0 255 255
5.52089 2.59793 -0.320337 0 255 255
5.51998 2.57635 -0.319813 0 255 255
5.52804 2.559 -0.319813 0 255 255
5.5179 2.53329 -0.318764 0 255 255
5.52583 2.51594 -0.318764 0 255 255
5.53371 2.49857 -0.318764 0 255 255
5.53242 2.47709 -0.31824 0 255 255
5.53105 2.45564 -0.317716 0 255 255
5.52959 2.43423 -0.317191 0 255 255
5.42738 2.36891 -0.3109 0 255 255
5.4348 2.35185 -0.3109 0 255 255
5.5064 2.36232 -0.31457 0 255 255
5.52299 2.34892 -0.315094 0 255 255
5.14386 2.16862 -0.293074 0 255 255
5.11379 2.13705 -0.290977 0 255 255
5.08357 2.10568 -0.28888 0 255 255
5.07169 2.08212 -0.287832 0 255 255
5.4112 2.20166 -0.306706 0 255 255
5.11246 2.06142 -0.289404 0 255 255
5.06327 2.02311 -0.286259 0 255 255
5.06031 2.00352 -0.285734 0 255 255
5.08518 1.9949 -0.286783 0 255 255
5.17519 2.01148 -0.291502 0 255 255
5.15352 1.98445 -0.289929 0 255 255
5.19705 1.98249 -0.292026 0 255 255
5.36206 2.02615 -0.300939 0 255 255
5.18135 1.93929 -0.290453 0 255 255
5.2436 1.94383 -0.293599 0 255 255
5.55904 2.04092 -0.3109 0 255 255
5.57481 2.02686 -0.311424 0 255 255
5.58114 2.00934 -0.311424 0 255 255
5.57802 1.98844 -0.3109 0 255 255
5.58424 1.97091 -0.3109 0 255 255
5.58098 1.95006 -0.310376 0 255 255
5.57764 1.92925 -0.309851 0 255 255
5.58367 1.91172 -0.309851 0 255 255
5.58965 1.89417 -0.309851 0 255 255
5.58611 1.87343 -0.309327 0 255 255
5.47823 1.81812 -0.303036 0 255 255
5.43648 1.78532 -0.300414 0 255 255
5.42306 1.76206 -0.299366 0 255 255
5.41906 1.74196 -0.298841 0 255 255
5.41499 1.7219 -0.298317 0 255 255
5.41085 1.70188 -0.297793 0 255 255
5.3971 1.67894 -0.296744 0 255 255
5.3928 1.65904 -0.29622 0 255 255
5.37888 1.63628 -0.295171 0 255 255
5.37443 1.6165 -0.294647 0 255 255
5.36991 1.59676 -0.294123 0 255 255
5.36532 1.57706 -0.293599 0 255 255
5.37984 1.56299 -0.294123 0 255 255
5.38472 1.54608 -0.294123 0 255 255
5.40877 1.53461 -0.295171 0 255 255
5.42318 1.5203 -0.295696 0 255 255
5.44718 1.50859 -0.296744 0 255 255
5.45189 1.49147 -0.296744 0 255 255
5.47583 1.47954 -0.297793 0 255 255
5.4901 1.46491 -0.298317 0 255 255
5.5333 1.45783 -0.300414 0 255 255
7.92507 1.98035 -0.428864 0 255 255
7.95064 1.96022 -0.429912 0 255 255
7.94706 1.93287 -0.429388 0 255 255
7.9628 1.91023 -0.429912 0 255 255
5.85152 1.28868 -0.31457 0 255 255
5.92386 1.28511 -0.31824 0 255 255
5.86949 1.25295 -0.315094 0 255 255
5.89294 1.23861 -0.316143 0 255 255
5.88703 1.21807 -0.315619 0 255 255
5.83211 1.18762 -0.312473 0 255 255
5.81623 1.16536 -0.311424 0 255 255
5.81986 1.14709 -0.311424 0 255 255
5.82696 1.1105 -0.311424 0 255 255
5.84023 1.09403 -0.311949 0 255 255
5.85346 1.07748 -0.312473 0 255 255
6.05791 0.880516 -0.321386 0 255 255
5.89257 0.837587 -0.312473 0 255 255
5.95452 0.827318 -0.315619 0 255 255
6.07584 0.824724 -0.32191 0 255 255
6.118 0.810882 -0.324007 0 255 255
8.96649 1.13114 -0.474476 0 255 255
3.26216 0.390721 -0.172489 0 255 255
3.28328 0.382211 -0.173538 0 255 255
3.27454 0.370771 -0.173013 0 255 255
3.27575 0.35991 -0.173013 0 255 255
3.26693 0.348558 -0.172489 0 255 255
3.27789 0.339892 -0.173013 0 255 255
3.30875 0.33259 -0.174586 0 255 255
3.31971 0.323162 -0.175111 0 255 255
3.31077 0.311794 -0.174586 0 255 255
3.31173 0.301392 -0.174586 0 255 255
3.30272 0.290111 -0.174062 0 255 255
3.31356 0.280577 -0.174586 0 255 255
3.30447 0.269355 -0.174062 0 255 255
3.27544 0.256632 -0.172489 0 255 255
3.27623 0.246341 -0.172489 0 255 255
3.26702 0.23533 -0.171965 0 255 255
3.25779 0.224378 -0.171441 0 255 255
3.26844 0.214798 -0.171965 0 255 255
3.2691 0.204528 -0.171965 0 255 255
3.26972 0.194256 -0.171965 0 255 255
3.27032 0.183985 -0.171965 0 255 255
3.27088 0.173709 -0.171965 0 255 255
3.27141 0.163433 -0.171965 0 255 255
3.26193 0.152687 -0.171441 0 255 255
3.31228 0.144617 -0.174062 0 255 255
3.27283 0.132023 -0.171965 0 255 255
3.29318 0.122482 -0.173013 0 255 255
3.30355 0.1119 -0.173538 0 255 255
3.30389 0.10152 -0.173538 0 255 255
3.29419 0.09144 -0.173013 0 255 255
3.30445 0.081337 -0.173538 0 255 255
3.31467 0.071169 -0.174062 0 255 255
3.27494 0.060024 -0.171965 0 255 255
3.27511 0.049734 -0.171965 0 255 255
3.26527 0.039325 -0.171441 0 255 255
3.27536 0.029156 -0.171965 0 255 255
3.27543 0.018865 -0.171965 0 255 255
3.26549 0.00855 -0.171441 0 255 255
3.27549 -0.001715 -0.171965 0 255 255
3.26548 -0.011969 -0.171441 0 255 255
3.26543 -0.022227 -0.171441 0 255 255
3.27533 -0.032585 -0.171965 0 255 255
3.26521 -0.043314 -0.171441 0 255 255
3.25508 -0.053408 -0.170916 0 255 255
3.27486 -0.064024 -0.171965 0 255 255
3.27466 -0.073741 -0.171965 0 255 255
3.27441 -0.084028 -0.171965 0 255 255
3.26415 -0.094027 -0.171441 0 255 255
3.26384 -0.104281 -0.171441 0 255 255
3.26349 -0.114534 -0.171441 0 255 255
3.26312 -0.124786 -0.171441 0 255 255
3.26271 -0.135037 -0.171441 0 255 255
3.27224 -0.14573 -0.171965 0 255 255
3.27174 -0.156581 -0.171965 0 255 255
3.26126 -0.16635 -0.171441 0 255 255
3.26072 -0.176595 -0.171441 0 255 255
3.27012 -0.187409 -0.171965 0 255 255
3.26952 -0.197681 -0.171965 0 255 255
3.25891 -0.207318 -0.171441 0 255 255
3.26821 -0.21822 -0.171965 0 255 255
3.27747 -0.229183 -0.172489 0 255 255
3.26678 -0.238751 -0.171965 0 255 255
3.27597 -0.249771 -0.172489 0 255 255
3.25526 -0.258481 -0.171441 0 255 255
3.26438 -0.269528 -0.171965 0 255 255
3.27347 -0.280635 -0.172489 0 255 255
3.26262 -0.290033 -0.171965 0 255 255
3.27164 -0.301197 -0.172489 0 255 255
3.28062 -0.312421 -0.173013 0 255 255
3.26968 -0.321748 -0.172489 0 255 255
3.26866 -0.332018 -0.172489 0 255 255
3.2676 -0.342285 -0.172489 0 255 255
3.26651 -0.352549 -0.172489 0 255 255
3.27531 -0.363912 -0.173013 0 255 255
3.2543 -0.371932 -0.171965 0 255 255
3.26304 -0.383319 -0.172489 0 255 255
3.27173 -0.394764 -0.173013 0 255 255
3.2704 -0.405612 -0.173013 0 255 255
3.26911 -0.415884 -0.173013 0 255 255
3.27769 -0.427443 -0.173538 0 255 255
3.27634 -0.437738 -0.173538 0 255 255
3.26505 -0.446676 -0.173013 0 255 255
3.28341 -0.4597 -0.174062 0 255 255
3.26218 -0.467182 -0.173013 0 255 255
3.28046 -0.480321 -0.174062 0 255 255
3.26905 -0.489147 -0.173538 0 255 255
3.27737 -0.500923 -0.174062 0 255 255
3.24618 -0.506598 -0.172489 0 255 255
4.90138 -0.780688 -0.260569 0 255 255
4.8989 -0.796082 -0.260569 0 255 255
4.87668 -0.808203 -0.25952 0 255 255
4.87397 -0.82437 -0.25952 0 255 255
4.86151 -0.837982 -0.258996 0 255 255
4.85886 -0.85325 -0.258996 0 255 255
4.84632 -0.866752 -0.258472 0 255 255
4.83375 -0.880184 -0.257947 0 255 255
4.83096 -0.895366 -0.257947 0 255 255
4.82813 -0.910538 -0.257947 0 255 255
4.81543 -0.92382 -0.257423 0 255 255
4.81251 -0.938944 -0.257423 0 255 255
4.79974 -0.952115 -0.256899 0 255 255
4.78693 -0.965215 -0.256375 0 255 255
4.82301 -0.988267 -0.258472 0 255 255
4.82966 -1.00545 -0.258996 0 255 255
4.86556 -1.02888 -0.261093 0 255 255
4.90135 -1.05255 -0.26319 0 255 255
4.93705 -1.07645 -0.265287 0 255 255
4.97245 -1.10146 -0.267384 0 255 255
4.9982 -1.12364 -0.268957 0 255 255
5.03359 -1.14822 -0.271054 0 255 255
5.0786 -1.17529 -0.273676 0 255 255
5.09433 -1.1958 -0.274724 0 255 255
5.14884 -1.22568 -0.27787 0 255 255
5.17408 -1.24888 -0.279443 0 255 255
5.22833 -1.27936 -0.282589 0 255 255
5.25337 -1.303 -0.284162 0 255 255
5.31704 -1.33653 -0.287832 0 255 255
5.34185 -1.36063 -0.289404 0 255 255
5.38589 -1.38988 -0.292026 0 255 255
5.42015 -1.4169 -0.294123 0 255 255
5.47359 -1.44925 -0.297269 0 255 255
5.52689 -1.48196 -0.300414 0 255 255
5.57039 -1.5124 -0.303036 0 255 255
5.61376 -1.54312 -0.305657 0 255 255
5.6666 -1.57682 -0.308803 0 255 255
5.82474 -1.64165 -0.317716 0 255 255
5.89638 -1.68185 -0.32191 0 255 255
5.94864 -1.71699 -0.325056 0 255 255
6.01031 -1.75526 -0.328726 0 255 255
6.05266 -1.78828 -0.331347 0 255 255
9.36712 -2.79958 -0.513273 0 255 255
9.35828 -2.829 -0.513273 0 255 255
9.3589 -2.8613 -0.513798 0 255 255
9.36894 -2.89659 -0.514846 0 255 255
9.36933 -2.92899 -0.51537 0 255 255
9.36909 -2.96305 -0.515895 0 255 255
3.94745 -1.26207 -0.217578 0 255 255
3.94346 -1.27446 -0.217578 0 255 255
3.94893 -1.28995 -0.218102 0 255 255
3.93538 -1.29922 -0.217578 0 255 255
3.9218 -1.30841 -0.217053 0 255 255
3.91767 -1.32073 -0.217053 0 255 255
3.91351 -1.33303 -0.217053 0 255 255
3.9093 -1.34532 -0.217053 0 255 255
3.89562 -1.35431 -0.216529 0 255 255
3.89135 -1.36654 -0.216529 0 255 255
3.88703 -1.37876 -0.216529 0 255 255
3.88268 -1.39097 -0.216529 0 255 255
3.87829 -1.40316 -0.216529 0 255 255
3.87362 -1.41601 -0.216529 0 255 255
3.85978 -1.42472 -0.216005 0 255 255
3.85529 -1.43683 -0.216005 0 255 255
3.8601 -1.45246 -0.216529 0 255 255
3.85552 -1.46458 -0.216529 0 255 255
3.8509 -1.47668 -0.216529 0 255 255
3.83693 -1.48517 -0.216005 0 255 255
3.83224 -1.49721 -0.216005 0 255 255
3.82752 -1.50924 -0.216005 0 255 255
3.81348 -1.51757 -0.21548 0 255 255
3.8177 -1.53393 -0.216005 0 255 255
3.8036 -1.54216 -0.21548 0 255 255
3.80798 -1.55789 -0.216005 0 255 255
3.79384 -1.56603 -0.21548 0 255 255
3.7889 -1.57794 -0.21548 0 255 255
3.78392 -1.58984 -0.21548 0 255 255
3.77891 -1.60172 -0.21548 0 255 255
3.78304 -1.61751 -0.216005 0 255 255
3.76849 -1.62609 -0.21548 0 255 255
3.76336 -1.63792 -0.21548 0 255 255
3.76734 -1.65375 -0.216005 0 255 255
3.753 -1.66153 -0.21548 0 255 255
3.74776 -1.67331 -0.21548 0 255 255
3.74248 -1.68508 -0.21548 0 255 255
3.73717 -1.69683 -0.21548 0 255 255
3.73182 -1.70856 -0.21548 0 255 255
3.72643 -1.72028 -0.21548 0 255 255
3.72101 -1.73197 -0.21548 0 255 255
3.71555 -1.74366 -0.21548 0 255 255
3.71006 -1.75532 -0.21548 0 255 255
3.71354 -1.77127 -0.216005 0 255 255
3.70795 -1.78292 -0.216005 0 255 255
3.70202 -1.79521 -0.216005 0 255 255
3.69636 -1.80683 -0.216005 0 255 255
3.69067 -1.81843 -0.216005 0 255 255
3.67599 -1.82558 -0.21548 0 255 255
3.67024 -1.83712 -0.21548 0 255 255
3.67337 -1.85314 -0.216005 0 255 255
3.65862 -1.86014 -0.21548 0 255 255
3.65276 -1.87163 -0.21548 0 255 255
3.64686 -1.88309 -0.21548 0 255 255
3.64979 -1.89915 -0.216005 0 255 255
3.64381 -1.91061 -0.216005 0 255 255
3.63778 -1.92205 -0.216005 0 255 255
3.62258 -1.9294 -0.21548 0 255 255
3.6165 -1.94078 -0.21548 0 255 255
3.61883 -1.95751 -0.216005 0 255 255
3.61266 -1.96887 -0.216005 0 255 255
3.59805 -1.97477 -0.21548 0 255 255
3.60056 -1.9909 -0.216005 0 255 255
9.47506 -5.31716 -0.57042 0 255 255
9.48439 -5.36164 -0.571993 0 255 255
9.63238 -5.4853 -0.581954 0 255 255
9.61414 -5.51722 -0.581954 0 255 255
5.74941 -3.32344 -0.348648 0 255 255
5.59223 -3.25606 -0.339736 0 255 255
5.63366 -3.30393 -0.342881 0 255 255
5.64904 -3.33684 -0.344454 0 255 255
5.58704 -3.32394 -0.341308 0 255 255
5.03595 -3.03908 -0.308803 0 255 255
4.97464 -3.02463 -0.305657 0 255 255
4.91402 -3.00896 -0.302511 0 255 255
4.87054 -3.00341 -0.300414 0 255 255
4.81866 -2.99236 -0.297793 0 255 255
4.77537 -2.9863 -0.295696 0 255 255
4.73216 -2.98 -0.293599 0 255 255
4.67218 -2.96277 -0.290453 0 255 255
4.6376 -2.96131 -0.28888 0 255 255
4.57787 -2.94346 -0.285734 0 255 255
4.54346 -2.94154 -0.284162 0 255 255
4.47563 -2.91763 -0.280492 0 255 255
4.43305 -2.90975 -0.278394 0 255 255
4.37339 -2.89139 -0.275249 0 255 255
4.33935 -2.88852 -0.273676 0 255 255
4.29707 -2.8799 -0.271579 0 255 255
4.25489 -2.87104 -0.269482 0 255 255
4.21281 -2.86195 -0.267384 0 255 255
4.16258 -2.84698 -0.264763 0 255 255
4.12072 -2.83739 -0.262666 0 255 255
4.08716 -2.83325 -0.261093 0 255 255
4.04549 -2.82322 -0.258996 0 255 255
4.01208 -2.81869 -0.257423 0 255 255
3.86413 -2.73393 -0.24851 0 255 255
3.95313 -2.81558 -0.254802 0 255 255
3.98394 -2.87543 -0.257947 0 255 255
3.98297 -2.8938 -0.258472 0 255 255
3.9658 -2.9004 -0.257947 0 255 255
3.95667 -2.91284 -0.257947 0 255 255
3.93947 -2.91931 -0.257423 0 255 255
3.92177 -2.92639 -0.256899 0 255 255
3.91255 -2.9387 -0.256899 0 255 255
3.90279 -2.95165 -0.256899 0 255 255
3.89349 -2.9639 -0.256899 0 255 255
3.87675 -2.96937 -0.256375 0 255 255
3.86741 -2.98153 -0.256375 0 255 255
3.85013 -2.98755 -0.25585 0 255 255
3.84073 -2.99963 -0.25585 0 255 255
3.82291 -3.00617 -0.255326 0 255 255
3.81345 -3.01817 -0.255326 0 255 255
3.80395 -3.03013 -0.255326 0 255 255
3.79441 -3.04207 -0.255326 0 255 255
3.78483 -3.05397 -0.255326 0 255 255
3.76747 -3.05955 -0.254802 0 255 255
3.76557 -3.07769 -0.255326 0 255 255
3.74817 -3.08316 -0.254802 0 255 255
3.73846 -3.09492 -0.254802 0 255 255
3.72105 -3.10026 -0.254277 0 255 255
3.71075 -3.11259 -0.254277 0 255 255
3.69332 -3.11778 -0.253753 0 255 255
3.69112 -3.13584 -0.254277 0 255 255
3.67366 -3.14093 -0.253753 0 255 255
3.6562 -3.14594 -0.253229 0 255 255
3.6463 -3.15741 -0.253229 0 255 255
3.63636 -3.16885 -0.253229 0 255 255
3.62639 -3.18026 -0.253229 0 255 255
3.61638 -3.19164 -0.253229 0 255 255
3.59887 -3.19635 -0.252705 0 255 255
3.57336 -3.19496 -0.251656 0 255 255
3.57073 -3.21285 -0.25218 0 255 255
3.55322 -3.21734 -0.251656 0 255 255
3.54309 -3.22849 -0.251656 0 255 255
3.51821 -3.22611 -0.250607 0 255 255
3.52274 -3.25069 -0.251656 0 255 255
3.50462 -3.25556 -0.251132 0 255 255
3.49438 -3.26655 -0.251132 0 255 255
3.4841 -3.27751 -0.251132 0 255 255
3.46653 -3.28158 -0.250607 0 255 255
3.45621 -3.29245 -0.250607 0 255 255
3.44585 -3.30329 -0.250607 0 255 255
3.42826 -3.30717 -0.250083 0 255 255
3.41786 -3.31792 -0.250083 0 255 255
3.41456 -3.33562 -0.250607 0 255 255
3.39694 -3.33933 -0.250083 0 255 255
3.38585 -3.35058 -0.250083 0 255 255
3.36823 -3.35415 -0.249559 0 255 255
3.36473 -3.37179 -0.250083 0 255 255
3.35412 -3.38234 -0.250083 0 255 255
3.34348 -3.39286 -0.250083 0 255 255
3.32582 -3.39621 -0.249559 0 255 255
3.3221 -3.4138 -0.250083 0 255 255
3.31136 -3.42422 -0.250083 0 255 255
3.29306 -3.42798 -0.249559 0 255 255
3.28917 -3.44553 -0.250083 0 255 255
3.27833 -3.45585 -0.250083 0 255 255
3.26746 -3.46613 -0.250083 0 255 255
3.24973 -3.46909 -0.249559 0 255 255
3.23201 -3.47197 -0.249035 0 255 255
3.22787 -3.48944 -0.249559 0 255 255
3.21013 -3.49221 -0.249035 0 255 255
3.19853 -3.50284 -0.249035 0 255 255
3.18751 -3.51287 -0.249035 0 255 255
3.18315 -3.53028 -0.249559 0 255 255
3.17204 -3.54027 -0.249559 0 255 255
3.15426 -3.54275 -0.249035 0 255 255
3.14312 -3.55265 -0.249035 0 255 255
3.13132 -3.56305 -0.249035 0 255 255
3.12668 -3.58039 -0.249559 0 255 255
3.11541 -3.5902 -0.249559 0 255 255
3.0976 -3.5924 -0.249035 0 255 255
3.09279 -3.6097 -0.249559 0 255 255
3.08144 -3.6194 -0.249559 0 255 255
3.0636 -3.62144 -0.249035 0 255 255
3.05221 -3.63105 -0.249035 0 255 255
3.04719 -3.64828 -0.249559 0 255 255
3.02934 -3.65015 -0.249035 0 255 255
2.9791 -3.61394 -0.245889 0 255 255
2.94875 -3.60011 -0.244316 0 255 255
2.94373 -3.6171 -0.24484 0 255 255
2.92607 -3.61856 -0.244316 0 255 255
2.92095 -3.63552 -0.24484 0 255 255
2.90951 -3.64468 -0.24484 0 255 255
2.89805 -3.6538 -0.24484 0 255 255
2.88655 -3.66289 -0.24484 0 255 255
2.87439 -3.67244 -0.24484 0 255 255
2.86284 -3.68145 -0.24484 0 255 255
2.84515 -3.68253 -0.244316 0 255 255
2.83965 -3.69937 -0.24484 0 255 255
2.83407 -3.71621 -0.245365 0 255 255
2.81635 -3.71714 -0.24484 0 255 255
2.79801 -3.71848 -0.244316 0 255 255
2.78631 -3.72725 -0.244316 0 255 255
2.78054 -3.744 -0.24484 0 255 255
2.76876 -3.75272 -0.24484 0 255 255
2.75696 -3.7614 -0.24484 0 255 255
2.73925 -3.76197 -0.244316 0 255 255
2.72742 -3.77056 -0.244316 0 255 255
2.71556 -3.7791 -0.244316 0 255 255
2.70368 -3.78762 -0.244316 0 255 255
2.68599 -3.78795 -0.243792 0 255 255
2.67341 -3.79683 -0.243792 0 255 255
2.66147 -3.80521 -0.243792 0 255 255
2.6495 -3.81356 -0.243792 0 255 255
2.63751 -3.82186 -0.243792 0 255 255
2.62549 -3.83013 -0.243792 0 255 255
2.60782 -3.8301 -0.243267 0 255 255
2.60697 -3.85482 -0.244316 0 255 255
2.58927 -3.8547 -0.243792 0 255 255
2.57648 -3.86327 -0.243792 0 255 255
2.56433 -3.87134 -0.243792 0 255 255
2.54666 -3.87104 -0.243267 0 255 255
2.53449 -3.87902 -0.243267 0 255 255
2.52161 -3.8874 -0.243267 0 255 255
2.50398 -3.88691 -0.242743 0 255 255
2.49176 -3.89475 -0.242743 0 255 255
2.48486 -3.91099 -0.243267 0 255 255
2.47257 -3.91878 -0.243267 0 255 255
2.44434 -3.90114 -0.241695 0 255 255
2.41385 -3.90835 -0.24117 0 255 255
2.42244 -3.94996 -0.243267 0 255 255
2.3373 -3.83815 -0.235928 0 255 255
2.3769 -3.93092 -0.24117 0 255 255
2.39538 -3.98974 -0.244316 0 255 255
3.51801 -5.90152 -0.360707 0 255 255
3.52488 -5.95551 -0.363328 0 255 255
3.48086 -5.9235 -0.360707 0 255 255
3.39178 -5.81365 -0.353367 0 255 255
3.36349 -5.807 -0.352318 0 255 255
3.35021 -5.82619 -0.352843 0 255 255
3.32592 -5.8286 -0.352318 0 255 255
3.31252 -5.8477 -0.352843 0 255 255
3.28923 -5.84938 -0.352318 0 255 255
3.25624 -5.83352 -0.350746 0 255 255
3.2379 -5.84372 -0.350746 0 255 255
3.22433 -5.86262 -0.35127 0 255 255
3.16365 -5.83886 -0.348648 0 255 255
3.15845 -5.87571 -0.350221 0 255 255
3.13528 -5.87679 -0.349697 0 255 255
3.12147 -5.89543 -0.350221 0 255 255
3.11687 -5.93173 -0.351794 0 255 255
3.10642 -5.95975 -0.352843 0 255 255
3.09685 -5.98722 -0.353891 0 255 255
3.08715 -6.01469 -0.35494 0 255 255
3.08637 -6.05995 -0.357037 0 255 255
3.07632 -6.08744 -0.358086 0 255 255
3.07061 -6.12386 -0.359658 0 255 255
3.06915 -6.16924 -0.361755 0 255 255
3.07627 -6.23258 -0.364901 0 255 255
3.07315 -6.27862 -0.366998 0 255 255
3.05341 -6.28824 -0.366998 0 255 255
3.04664 -6.3248 -0.368571 0 255 255
3.03537 -6.35236 -0.36962 0 255 255
3.00684 -6.34381 -0.368571 0 255 255
2.9614 -6.29901 -0.365425 0 255 255
2.94582 -6.31733 -0.36595 0 255 255
2.50388 -5.55323 -0.319813 0 255 255
2.49049 -5.57018 -0.320337 0 255 255
2.48108 -5.59624 -0.321386 0 255 255
2.47152 -5.62229 -0.322434 0 255 255
2.46483 -5.65792 -0.324007 0 255 255
2.451 -5.6748 -0.324531 0 255 255
2.44496 -5.71001 -0.326104 0 255 255
2.43091 -5.72686 -0.326629 0 255 255
2.42065 -5.75288 -0.327677 0 255 255
2.41025 -5.77889 -0.328726 0 255 255
2.39972 -5.80489 -0.329774 0 255 255
2.38904 -5.83088 -0.330823 0 255 255
2.38096 -5.86653 -0.332396 0 255 255
2.36997 -5.89251 -0.333444 0 255 255
2.35884 -5.91848 -0.334493 0 255 255
2.35124 -5.95372 -0.336066 0 255 255
2.33148 -5.96149 -0.336066 0 255 255
2.31996 -5.98741 -0.337114 0 255 255
2.31903 -6.04128 -0.339736 0 255 255
2.30714 -6.0672 -0.340784 0 255 255
2.29511 -6.09311 -0.341833 0 255 255
2.28293 -6.11901 -0.342881 0 255 255
2.26955 -6.14528 -0.34393 0 255 255
2.26052 -6.18051 -0.345503 0 255 255
2.2445 -6.19698 -0.346027 0 255 255
2.2385 -6.24159 -0.348124 0 255 255
2.22113 -6.2584 -0.348648 0 255 255
2.16864 -6.2345 -0.346551 0 255 255
2.1653 -6.28849 -0.349173 0 255 255
2.14553 -6.29527 -0.349173 0 255 255
2.77688 -8.23231 -0.456126 0 255 255
2.74468 -8.22205 -0.455078 0 255 255
2.71257 -8.21166 -0.454029 0 255 255
2.68055 -8.20116 -0.452981 0 255 255
2.64556 -8.18104 -0.451408 0 255 255
2.60929 -8.16123 -0.449835 0 255 255
2.58063 -8.15986 -0.449311 0 255 255
2.55796 -8.17746 -0.449835 0 255 255
2.53226 -8.18546 -0.449835 0 255 255
2.37064 -7.93191 -0.434631 0 255 255
2.90584 -9.95009 -0.544206 0 255 255
2.88288 -9.98796 -0.545779 0 255 255
2.8689 -10.0647 -0.549449 0 255 255
2.74793 -9.75644 -0.532148 0 255 255
2.80561 -10.0825 -0.549449 0 255 255
1.85281 -6.74036 -0.366998 0 255 255
1.82377 -6.71723 -0.365425 0 255 255
1.7949 -6.69399 -0.363853 0 255 255
1.76875 -6.68029 -0.362804 0 255 255
1.74523 -6.67615 -0.36228 0 255 255
1.72059 -6.67223 -0.361755 0 255 255
1.69715 -6.66793 -0.361231 0 255 255
1.67377 -6.66354 -0.360707 0 255 255
1.65282 -6.66877 -0.360707 0 255 255
1.62949 -6.66423 -0.360183 0 255 255
1.60855 -6.66931 -0.360183 0 255 255
1.58297 -6.6549 -0.359134 0 255 255
1.56205 -6.65984 -0.359134 0 255 255
1.53996 -6.66499 -0.359134 0 255 255
1.51679 -6.66006 -0.35861 0 255 255
1.49368 -6.65504 -0.358086 0 255 255
1.47492 -6.66945 -0.35861 0 255 255
1.45183 -6.6643 -0.358086 0 255 255
1.40052 -6.63445 -0.355988 0 255 255
1.35935 -6.54104 -0.350746 0 255 255
1.36081 -6.6529 -0.356513 0 255 255
1.34778 -6.6963 -0.35861 0 255 255
1.32286 -6.68091 -0.357561 0 255 255
1.30186 -6.68504 -0.357561 0 255 255
1.28085 -6.68909 -0.357561 0 255 255
1.26168 -6.7029 -0.358086 0 255 255
1.23944 -6.70705 -0.358086 0 255 255
1.21658 -6.70108 -0.357561 0 255 255
1.19728 -6.7147 -0.358086 0 255 255
1.17446 -6.70859 -0.357561 0 255 255
1.15338 -6.71225 -0.357561 0 255 255
1.13394 -6.72569 -0.358086 0 255 255
1.11118 -6.71936 -0.357561 0 255 255
1.09166 -6.73268 -0.358086 0 255 255
1.06933 -6.73626 -0.358086 0 255 255
1.0497 -6.74945 -0.35861 0 255 255
1.02881 -6.76277 -0.359134 0 255 255
1.00903 -6.77585 -0.359658 0 255 255
0.989179 -6.78887 -0.360183 0 255 255
0.970663 -6.81171 -0.361231 0 255 255
0.961658 -6.90375 -0.36595 0 255 255
1.39244 -10.2315 -0.542109 0 255 255
1.09311 -8.23634 -0.436204 0 255 255
1.32634 -10.2402 -0.542109 0 255 255
1.29667 -10.2642 -0.543158 0 255 255
1.26319 -10.2583 -0.542633 0 255 255
1.23096 -10.2622 -0.542633 0 255 255
1.19871 -10.266 -0.542633 0 255 255
0.246563 -2.23334 -0.117964 0 255 255
0.241281 -2.254 -0.119012 0 255 255
0.233167 -2.24482 -0.118488 0 255 255
0.228115 -2.26541 -0.119537 0 255 255
1.00418 -10.2969 -0.543158 0 255 255
0.956815 -10.1409 -0.534769 0 255 255
0.483313 -5.49118 -0.289404 0 255 255
0.73971 -10.2692 -0.540536 0 255 255
0.706336 -10.2816 -0.54106 0 255 255
0.674686 -10.2937 -0.541585 0 255 255
0.642343 -10.2958 -0.541585 0 255 255
0.610585 -10.3077 -0.542109 0 255 255
0.578758 -10.3195 -0.542633 0 255 255
0.545808 -10.3113 -0.542109 0 255 255
0.412159 -8.30833 -0.436728 0 255 255
0.097225 -2.2448 -0.117964 0 255 255
0.092176 -2.29499 -0.120585 0 255 255
0.085705 -2.31522 -0.121634 0 255 255
0.078769 -2.32546 -0.122158 0 255 255
0.069837 -2.28578 -0.120061 0 255 255
0.029823 -1.08809 -0.057147 0 255 255
0.025436 -1.04825 -0.05505 0 255 255
0.020666 -0.978434 -0.05138 0 255 255
0.018131 -1.00845 -0.052953 0 255 255
0.01437 -0.968559 -0.050855 0 255 255
0.011677 -0.998556 -0.052428 0 255 255
0.008199 -0.958645 -0.050331 0 255 255
0.005072 -0.968653 -0.050855 0 255 255
0.002029 -0.968664 -0.050855 0 255 255
-0.001004 -0.958679 -0.050331 0 255 255
-0.004058 -0.968657 -0.050855 0 255 255
-0.007195 -0.958653 -0.050331 0 255 255
-0.010206 -0.958625 -0.050331 0 255 255
-0.013218 -0.958589 -0.050331 0 255 255
-0.016568 -0.978512 -0.05138 0 255 255
-0.019441 -0.968471 -0.050855 0 255 255
-0.022483 -0.968405 -0.050855 0 255 255
-0.024999 -0.948364 -0.049807 0 255 255
-0.028273 -0.958263 -0.050331 0 255 255
-0.031778 -0.968145 -0.050855 0 255 255
-0.035179 -0.97802 -0.05138 0 255 255
-0.03747 -0.957947 -0.050331 0 255 255
-0.040901 -0.967802 -0.050855 0 255 255
-0.044565 -0.977637 -0.05138 0 255 255
-0.04715 -0.967518 -0.050855 0 255 255
-0.050707 -0.977338 -0.05138 0 255 255
-0.053777 -0.977174 -0.05138 0 255 255
-0.058007 -0.996939 -0.052428 0 255 255
-0.061139 -0.996751 -0.052428 0 255 255
-0.063627 -0.986589 -0.051904 0 255 255
-0.066726 -0.986384 -0.051904 0 255 255
-0.069997 -0.986157 -0.051904 0 255 255
-0.072356 -0.975974 -0.05138 0 255 255
-0.076191 -0.985698 -0.051904 0 255 255
-0.079288 -0.985454 -0.051904 0 255 255
-0.081551 -0.975248 -0.05138 0 255 255
-0.085478 -0.984936 -0.051904 0 255 255
-0.087847 -0.974701 -0.05138 0 255 255
-0.091837 -0.984364 -0.051904 0 255 255
-0.094929 -0.98407 -0.051904 0 255 255
-0.09901 -0.993704 -0.052428 0 255 255
-0.101281 -0.983437 -0.051904 0 255 255
-0.10437 -0.983114 -0.051904 0 255 255
-0.107458 -0.982781 -0.051904 0 255 255
-0.110545 -0.982439 -0.051904 0 255 255
-0.113631 -0.982086 -0.051904 0 255 255
-0.117895 -0.991641 -0.052428 0 255 255
-0.117547 -0.961507 -0.050855 0 255 255
-0.12181 -0.971042 -0.05138 0 255 255
-0.12486 -0.970654 -0.05138 0 255 255
-0.129214 -0.980158 -0.051904 0 255 255
-0.132293 -0.979747 -0.051904 0 255 255
-0.13537 -0.979327 -0.051904 0 255 255
-0.138446 -0.978897 -0.051904 0 255 255
-0.141521 -0.978457 -0.051904 0 255 255
-0.144765 -0.977982 -0.051904 0 255 255
-0.147836 -0.977523 -0.051904 0 255 255
-0.150907 -0.977053 -0.051904 0 255 255
-0.157086 -0.996303 -0.052953 0 255 255
-0.157043 -0.976086 -0.051904 0 255 255
-0.160108 -0.975588 -0.051904 0 255 255
-0.164992 -0.9849 -0.052428 0 255 255
-0.168086 -0.984377 -0.052428 0 255 255
-0.171178 -0.983844 -0.052428 0 255 255
-0.174268 -0.983302 -0.052428 0 255 255
-0.179129 -0.992577 -0.052953 0 255 255
-0.180442 -0.982187 -0.052428 0 255 255
-0.185362 -0.991432 -0.052953 0 255 255
-0.18661 -0.981034 -0.052428 0 255 255
-0.191761 -0.990214 -0.052953 0 255 255
-0.192941 -0.979809 -0.052428 0 255 255
-0.196018 -0.979198 -0.052428 0 255 255
-0.201085 -0.988363 -0.052953 0 255 255
-0.204189 -0.987726 -0.052953 0 255 255
-0.207291 -0.98708 -0.052953 0 255 255
-0.210391 -0.986424 -0.052953 0 255 255
-0.215602 -0.995518 -0.053477 0 255 255
-0.216584 -0.985082 -0.052953 0 255 255
-0.219678 -0.984397 -0.052953 0 255 255
-0.222941 -0.983663 -0.052953 0 255 255
-0.22603 -0.982958 -0.052953 0 255 255
-0.229117 -0.982243 -0.052953 0 255 255
-0.232202 -0.981518 -0.052953 0 255 255
-0.237614 -0.990495 -0.053477 0 255 255
-0.240724 -0.989743 -0.053477 0 255 255
-0.244005 -0.98894 -0.053477 0 255 255
-0.244688 -0.97848 -0.052953 0 255 255
-0.250214 -0.987387 -0.053477 0 255 255
-0.255798 -0.996269 -0.054001 0 255 255
-0.259101 -0.995415 -0.054001 0 255 255
-0.264772 -1.00425 -0.054525 0 255 255
-0.26535 -0.993767 -0.054001 0 255 255
-0.271077 -1.00257 -0.054525 0 255 255
-0.276862 -1.01134 -0.05505 0 255 255
-0.274704 -0.991222 -0.054001 0 255 255
-0.280514 -0.999969 -0.054525 0 255 255
-0.283654 -0.999083 -0.054525 0 255 255
-0.286791 -0.998187 -0.054525 0 255 255
-0.289926 -0.997281 -0.054525 0 255 255
-0.293231 -0.996314 -0.054525 0 255 255
-0.29636 -0.995388 -0.054525 0 255 255
-0.299659 -0.9944 -0.054525 0 255 255
-0.308604 -1.01256 -0.055574 0 255 255
-0.308842 -1.00204 -0.05505 0 255 255
-0.311989 -1.00107 -0.05505 0 255 255
-0.315132 -1.00008 -0.05505 0 255 255
-0.321304 -1.0086 -0.055574 0 255 255
-0.324471 -1.00759 -0.055574 0 255 255
-0.324544 -0.997066 -0.05505 0 255 255
-0.327848 -0.995984 -0.05505 0 255 255
-0.334128 -1.00443 -0.055574 0 255 255
-0.3341 -0.993905 -0.05505 0 255 255
-0.340432 -1.00231 -0.055574 0 255 255
-0.340511 -0.991727 -0.05505 0 255 255
-0.35017 -1.00952 -0.056098 0 255 255
-0.35334 -1.00842 -0.056098 0 255 255
-0.356506 -1.0073 -0.056098 0 255 255
-0.359669 -1.00618 -0.056098 0 255 255
-0.362828 -1.00504 -0.056098 0 255 255
-0.369404 -1.01328 -0.056623 0 255 255
-0.372586 -1.01211 -0.056623 0 255 255
-0.37594 -1.01087 -0.056623 0 255 255
-0.379114 -1.00969 -0.056623 0 255 255
-0.385824 -1.01783 -0.057147 0 255 255
-0.392588 -1.02594 -0.057671 0 255 255
-0.399408 -1.03402 -0.058195 0 255 255
-0.399027 -1.02345 -0.057671 0 255 255
-0.40224 -1.02219 -0.057671 0 255 255
-0.405449 -1.02092 -0.057671 0 255 255
-0.412549 -1.02884 -0.058195 0 255 255
-0.412034 -1.01828 -0.057671 0 255 255
-0.415231 -1.01698 -0.057671 0 255 255
-0.422227 -1.02491 -0.058195 0 255 255
-0.425624 -1.0235 -0.058195 0 255 255
-0.432701 -1.03137 -0.05872 0 255 255
-0.435939 -1.03 -0.05872 0 255 255
-0.435251 -1.01945 -0.058195 0 255 255
-0.446352 -1.03642 -0.059244 0 255 255
-0.445627 -1.02585 -0.05872 0 255 255
-0.448847 -1.02445 -0.05872 0 255 255
-0.4561 -1.03216 -0.059244 0 255 255
-0.45934 -1.03073 -0.059244 0 255 255
-0.462576 -1.02928 -0.059244 0 255 255
-0.47011 -1.03683 -0.059768 0 255 255
-0.460908 -1.00811 -0.058195 0 255 255
-0.480796 -1.04293 -0.060293 0 255 255
-0.463024 -0.996134 -0.057671 0 255 255
-0.495815 -1.05797 -0.061341 0 255 255
-0.469274 -0.993205 -0.057671 0 255 255
-0.498159 -1.04582 -0.060817 0 255 255
-0.479828 -0.999239 -0.058195 0 255 255
-0.504902 -1.04258 -0.060817 0 255 255
-0.490651 -1.00509 -0.05872 0 255 255
-0.515851 -1.04835 -0.061341 0 255 255
-0.496957 -1.00199 -0.05872 0 255 255
-0.527077 -1.05393 -0.061865 0 255 255
-0.507912 -1.00768 -0.059244 0 255 255
-0.533689 -1.05059 -0.061865 0 255 255
-0.518784 -1.01336 -0.059768 0 255 255
-0.544858 -1.0561 -0.06239 0 255 255
-0.529747 -1.01894 -0.060293 0 255 255
-0.551483 -1.05265 -0.06239 0 255 255
-0.531477 -1.00676 -0.059768 0 255 255
-0.558086 -1.04917 -0.06239 0 255 255
-0.533074 -0.994596 -0.059244 0 255 255
-0.574343 -1.06311 -0.063438 0 255 255
-0.563357 -1.03499 -0.061865 0 255 255
-0.590614 -1.07699 -0.064487 0 255 255
-0.589166 -1.06639 -0.063963 0 255 255
-0.587841 -1.05571 -0.063438 0 255 255
-0.605811 -1.07998 -0.065011 0 255 255
-0.599375 -1.06069 -0.063963 0 255 255
-0.607645 -1.06748 -0.064487 0 255 255
-0.173624 -0.268279 -0.016777 0 255 255
-0.185419 -0.284433 -0.017826 0 255 255
-0.164393 -0.250455 -0.015728 0 255 255
-0.159673 -0.241606 -0.015204 0 255 255
-0.171495 -0.257731 -0.016253 0 255 255
-0.172304 -0.257191 -0.016253 0 255 255
-0.167527 -0.248369 -0.015728 0 255 255
-0.162696 -0.23958 -0.015204 0 255 255
-0.163448 -0.239068 -0.015204 0 255 255
