ply
format ascii 1.0
element vertex 1278
property float x
property float y
property float z
property uchar red
property uchar green
property uchar blue
end_header
-0.146875 -0.208672 -0.04984 0 255 255
-0.136181 -0.192193 -0.046006 0 255 255
-0.17098 -0.239705 -0.057507 0 255 255
-0.183181 -0.255112 -0.061341 0 255 255
-0.189777 -0.262456 -0.063258 0 255 255
-0.190601 -0.261858 -0.063258 0 255 255
-0.232027 -0.316677 -0.076676 0 255 255
-0.291276 -0.394933 -0.095846 0 255 255
-0.228162 -0.307332 -0.07476 0 255 255
-0.323127 -0.432404 -0.10543 0 255 255
-0.318584 -0.423544 -0.103513 0 255 255
-0.331762 -0.43819 -0.107347 0 255 255
-0.31529 -0.413727 -0.101596 0 255 255
-0.298668 -0.389373 -0.095846 0 255 255
-0.257905 -0.334052 -0.082427 0 255 255
-0.240887 -0.309991 -0.076676 0 255 255
-0.211674 -0.270541 -0.067092 0 255 255
-0.242884 -0.308429 -0.076676 0 255 255
-0.213417 -0.269169 -0.067092 0 255 255
-0.183613 -0.230172 -0.057507 0 255 255
-0.159757 -0.198982 -0.04984 0 255 255
-0.148044 -0.183211 -0.046006 0 255 255
-0.142457 -0.175106 -0.044089 0 255 255
-0.143007 -0.174658 -0.044089 0 255 255
-0.149796 -0.181782 -0.046006 0 255 255
-0.150366 -0.18131 -0.046006 0 255 255
-0.144646 -0.173302 -0.044089 0 255 255
-0.151503 -0.180362 -0.046006 0 255 255
-0.145732 -0.17239 -0.044089 0 255 255
-0.152633 -0.179406 -0.046006 0 255 255
-0.153196 -0.178926 -0.046006 0 255 255
-0.172977 -0.200749 -0.051757 0 255 255
-0.180036 -0.20762 -0.053674 0 255 255
-0.174235 -0.199659 -0.051757 0 255 255
-0.181373 -0.206453 -0.053674 0 255 255
-0.201523 -0.227941 -0.059424 0 255 255
-0.215286 -0.241972 -0.063258 0 255 255
-0.248779 -0.277854 -0.072843 0 255 255
-0.249651 -0.277071 -0.072843 0 255 255
-0.327552 -0.352118 -0.093929 0 255 255
-0.335364 -0.358252 -0.095846 0 255 255
-0.323028 -0.342909 -0.092012 0 255 255
-0.337608 -0.356138 -0.095846 0 255 255
-0.331951 -0.347974 -0.093929 0 255 255
-0.346699 -0.361029 -0.097763 0 255 255
-0.334191 -0.345823 -0.093929 0 255 255
-0.342118 -0.351808 -0.095846 0 255 255
-0.350086 -0.357746 -0.097763 0 255 255
-0.344322 -0.349651 -0.095846 0 255 255
-0.352327 -0.355539 -0.097763 0 255 255
-0.367303 -0.36833 -0.101596 0 255 255
-0.368458 -0.367174 -0.101596 0 255 255
-0.376583 -0.372921 -0.103513 0 255 255
-0.363762 -0.357968 -0.099679 0 255 255
-0.364947 -0.35676 -0.099679 0 255 255
-0.366066 -0.355611 -0.099679 0 255 255
-0.360121 -0.347643 -0.097763 0 255 255
-0.354128 -0.339716 -0.095846 0 255 255
-0.369402 -0.352145 -0.099679 0 255 255
-0.370506 -0.350983 -0.099679 0 255 255
-0.364461 -0.34309 -0.097763 0 255 255
-0.365537 -0.341944 -0.097763 0 255 255
-0.373798 -0.347476 -0.099679 0 255 255
-0.367737 -0.339576 -0.097763 0 255 255
-0.376034 -0.345055 -0.099679 0 255 255
-0.377056 -0.343937 -0.099679 0 255 255
-0.378194 -0.342685 -0.099679 0 255 255
-0.379269 -0.341495 -0.099679 0 255 255
-0.373026 -0.333758 -0.097763 0 255 255
-0.381407 -0.339106 -0.099679 0 255 255
-0.36776 -0.324909 -0.095846 0 255 255
-0.376155 -0.330227 -0.097763 0 255 255
-0.377248 -0.328978 -0.097763 0 255 255
-0.370862 -0.321364 -0.095846 0 255 255
-0.402644 -0.329326 -0.101596 0 255 255
-0.388444 -0.31568 -0.097763 0 255 255
-0.381798 -0.308292 -0.095846 0 255 255
-0.39042 -0.313233 -0.097763 0 255 255
-0.360704 -0.287534 -0.090095 0 255 255
-0.361605 -0.286399 -0.090095 0 255 255
-0.362503 -0.285262 -0.090095 0 255 255
-0.363398 -0.284122 -0.090095 0 255 255
-0.37979 -0.29502 -0.093929 0 255 255
-0.365176 -0.281833 -0.090095 0 255 255
-0.366059 -0.280684 -0.090095 0 255 255
-0.374746 -0.28548 -0.092012 0 255 255
-0.367816 -0.278379 -0.090095 0 255 255
-0.360844 -0.271323 -0.088178 0 255 255
-0.361694 -0.270188 -0.088178 0 255 255
-0.362541 -0.269051 -0.088178 0 255 255
-0.363432 -0.267847 -0.088178 0 255 255
-0.348433 -0.255108 -0.084344 0 255 255
-0.35717 -0.259785 -0.086261 0 255 255
-0.36594 -0.26441 -0.088178 0 255 255
-0.366769 -0.263259 -0.088178 0 255 255
-0.359603 -0.256408 -0.086261 0 255 255
-0.368416 -0.260949 -0.088178 0 255 255
-0.35318 -0.248495 -0.084344 0 255 255
-0.378092 -0.264252 -0.090095 0 255 255
-0.378921 -0.263063 -0.090095 0 255 255
-0.37171 -0.256234 -0.088178 0 255 255
-0.38871 -0.266155 -0.092012 0 255 255
-0.397707 -0.270383 -0.093929 0 255 255
-0.390374 -0.263708 -0.092012 0 255 255
-0.399351 -0.267948 -0.093929 0 255 255
-0.392024 -0.26125 -0.092012 0 255 255
-0.409258 -0.270779 -0.095846 0 255 255
-0.410107 -0.269492 -0.095846 0 255 255
-0.410951 -0.268203 -0.095846 0 255 255
-0.411792 -0.26691 -0.095846 0 255 255
-0.412628 -0.265615 -0.095846 0 255 255
-0.405192 -0.259031 -0.093929 0 255 255
-0.381146 -0.241976 -0.088178 0 255 255
-0.381904 -0.240777 -0.088178 0 255 255
-0.399296 -0.249993 -0.092012 0 255 255
-0.391745 -0.243555 -0.090095 0 255 255
-0.392508 -0.242323 -0.090095 0 255 255
-0.393267 -0.241089 -0.090095 0 255 255
-0.402406 -0.244955 -0.092012 0 255 255
-0.403174 -0.24369 -0.092012 0 255 255
-0.403937 -0.242422 -0.092012 0 255 255
-0.404697 -0.241152 -0.092012 0 255 255
-0.397046 -0.234813 -0.090095 0 255 255
-0.414709 -0.243503 -0.093929 0 255 255
-0.406993 -0.237256 -0.092012 0 255 255
-0.416231 -0.240893 -0.093929 0 255 255
-0.416986 -0.239584 -0.093929 0 255 255
-0.426261 -0.243135 -0.095846 0 255 255
-0.418483 -0.236959 -0.093929 0 255 255
-0.427781 -0.240452 -0.095846 0 255 255
-0.411393 -0.229543 -0.092012 0 255 255
-0.429283 -0.23776 -0.095846 0 255 255
-0.404265 -0.222155 -0.090095 0 255 255
-0.413577 -0.225583 -0.092012 0 255 255
-0.431546 -0.233628 -0.095846 0 255 255
-0.449569 -0.241562 -0.099679 0 255 255
-0.450325 -0.240148 -0.099679 0 255 255
-0.433728 -0.22955 -0.095846 0 255 255
-0.425758 -0.223623 -0.093929 0 255 255
-0.435162 -0.226821 -0.095846 0 255 255
-0.418475 -0.216361 -0.092012 0 255 255
-0.427885 -0.219526 -0.093929 0 255 255
-0.41108 -0.209275 -0.090095 0 255 255
-0.420496 -0.212408 -0.092012 0 255 255
-0.438709 -0.219881 -0.095846 0 255 255
-0.421822 -0.209762 -0.092012 0 255 255
-0.413677 -0.204093 -0.090095 0 255 255
-0.405501 -0.198477 -0.088178 0 255 255
-0.397294 -0.192916 -0.086261 0 255 255
-0.40674 -0.195926 -0.088178 0 255 255
-0.416209 -0.198878 -0.090095 0 255 255
-0.381357 -0.180755 -0.082427 0 255 255
-0.408569 -0.192084 -0.088178 0 255 255
-0.39138 -0.182504 -0.084344 0 255 255
-0.391983 -0.181205 -0.084344 0 255 255
-0.392551 -0.179972 -0.084344 0 255 255
-0.393114 -0.178738 -0.084344 0 255 255
-0.384726 -0.173468 -0.082427 0 255 255
-0.394229 -0.176265 -0.084344 0 255 255
-0.376837 -0.16707 -0.08051 0 255 255
-0.37736 -0.165885 -0.08051 0 255 255
-0.386876 -0.16862 -0.082427 0 255 255
-0.378394 -0.163511 -0.08051 0 255 255
-0.387928 -0.166186 -0.082427 0 255 255
-0.388448 -0.164966 -0.082427 0 255 255
-0.370873 -0.156129 -0.078593 0 255 255
-0.371362 -0.154963 -0.078593 0 255 255
-0.380916 -0.157547 -0.08051 0 255 255
-0.363247 -0.148904 -0.076676 0 255 255
-0.363713 -0.147762 -0.076676 0 255 255
-0.355071 -0.142954 -0.07476 0 255 255
-0.355518 -0.141837 -0.07476 0 255 255
-0.355987 -0.140658 -0.07476 0 255 255
-0.338148 -0.132383 -0.070926 0 255 255
-0.347736 -0.134808 -0.072843 0 255 255
-0.476368 -0.216892 -0.083257 0 255 255
-0.477721 -0.213895 -0.083257 0 255 255
-0.451312 -0.200371 -0.078544 0 255 255
-0.451939 -0.198952 -0.078544 0 255 255
-0.443511 -0.193581 -0.076973 0 255 255
-0.425989 -0.184342 -0.073831 0 255 255
-0.435642 -0.186897 -0.075402 0 255 255
-0.418051 -0.177797 -0.07226 0 255 255
-0.409538 -0.172574 -0.070689 0 255 255
-0.400965 -0.167481 -0.069119 0 255 255
-0.428863 -0.177553 -0.073831 0 255 255
-0.40198 -0.165028 -0.069119 0 255 255
-0.448235 -0.182374 -0.076973 0 255 255
-0.439647 -0.177272 -0.075402 0 255 255
-0.431061 -0.17215 -0.073831 0 255 255
-0.440782 -0.174429 -0.075402 0 255 255
-0.432134 -0.169438 -0.073831 0 255 255
-0.432664 -0.16808 -0.073831 0 255 255
-0.43319 -0.16672 -0.073831 0 255 255
-0.424484 -0.16184 -0.07226 0 255 255
-0.388034 -0.146549 -0.065977 0 255 255
-0.425492 -0.15917 -0.07226 0 255 255
-0.416729 -0.154401 -0.070689 0 255 255
-0.407967 -0.149618 -0.069119 0 255 255
-0.399152 -0.144964 -0.067548 0 255 255
-0.371703 -0.133748 -0.062835 0 255 255
-0.390752 -0.13914 -0.065977 0 255 255
-0.363245 -0.128061 -0.061264 0 255 255
-0.354321 -0.123665 -0.059693 0 255 255
-0.364043 -0.125777 -0.061264 0 255 255
-0.383125 -0.131024 -0.064406 0 255 255
-0.336762 -0.113988 -0.056552 0 255 255
-0.355847 -0.119203 -0.059693 0 255 255
-0.35622 -0.118084 -0.059693 0 255 255
-0.347205 -0.113887 -0.058122 0 255 255
-0.356955 -0.115844 -0.059693 0 255 255
-0.347914 -0.111703 -0.058122 0 255 255
-0.376501 -0.119578 -0.062835 0 255 255
-0.358031 -0.112475 -0.059693 0 255 255
-0.377245 -0.11721 -0.062835 0 255 255
-0.377611 -0.116024 -0.062835 0 255 255
-0.377974 -0.114837 -0.062835 0 255 255
-0.378352 -0.113583 -0.062835 0 255 255
-0.36924 -0.109584 -0.061264 0 255 255
-0.379059 -0.111204 -0.062835 0 255 255
-0.398376 -0.115513 -0.065977 0 255 255
-0.398737 -0.114261 -0.065977 0 255 255
-0.399094 -0.113008 -0.065977 0 255 255
-0.399447 -0.111753 -0.065977 0 255 255
-0.390278 -0.107867 -0.064406 0 255 255
-0.381087 -0.104039 -0.062835 0 255 255
-0.390948 -0.105413 -0.064406 0 255 255
-0.391277 -0.104184 -0.064406 0 255 255
-0.401154 -0.105465 -0.065977 0 255 255
-0.391924 -0.101723 -0.064406 0 255 255
-0.382675 -0.098041 -0.062835 0 255 255
-0.373406 -0.094417 -0.061264 0 255 255
-0.383283 -0.095634 -0.062835 0 255 255
-0.364418 -0.089645 -0.059693 0 255 255
-0.335906 -0.081512 -0.054981 0 255 255
-0.33616 -0.080457 -0.054981 0 255 255
-0.336412 -0.0794 -0.054981 0 255 255
-0.32704 -0.076105 -0.05341 0 255 255
-0.336904 -0.077285 -0.054981 0 255 255
-0.327512 -0.074048 -0.05341 0 255 255
-0.327743 -0.073019 -0.05341 0 255 255
-0.327971 -0.071989 -0.05341 0 255 255
-0.328196 -0.070958 -0.05341 0 255 255
-0.338076 -0.071984 -0.054981 0 255 255
-0.328635 -0.068895 -0.05341 0 255 255
-0.319178 -0.065866 -0.051839 0 255 255
-0.309716 -0.062844 -0.050268 0 255 255
-0.319596 -0.063804 -0.051839 0 255 255
-0.329475 -0.06476 -0.05341 0 255 255
-0.31998 -0.06185 -0.051839 0 255 255
-0.339577 -0.064532 -0.054981 0 255 255
-0.339789 -0.063406 -0.054981 0 255 255
-0.339987 -0.062338 -0.054981 0 255 255
-0.320742 -0.057768 -0.051839 0 255 255
-0.340372 -0.060201 -0.054981 0 255 255
-0.35029 -0.06082 -0.056552 0 255 255
-0.350479 -0.05972 -0.056552 0 255 255
-0.360406 -0.060247 -0.058122 0 255 255
-0.370339 -0.060712 -0.059693 0 255 255
-0.321774 -0.051713 -0.051839 0 255 255
-0.33169 -0.052238 -0.05341 0 255 255
-0.361134 -0.055713 -0.058122 0 255 255
-0.351542 -0.053103 -0.056552 0 255 255
-0.341938 -0.050554 -0.054981 0 255 255
-0.342095 -0.04948 -0.054981 0 255 255
-0.322692 -0.045639 -0.051839 0 255 255
-0.322833 -0.044625 -0.051839 0 255 255
-0.332759 -0.044932 -0.05341 0 255 255
-0.313316 -0.041305 -0.050268 0 255 255
-0.313444 -0.04032 -0.050268 0 255 255
-0.313576 -0.03928 -0.050268 0 255 255
-0.323501 -0.039492 -0.051839 0 255 255
-0.313811 -0.037364 -0.050268 0 255 255
-0.313933 -0.036323 -0.050268 0 255 255
-0.323859 -0.036441 -0.051839 0 255 255
-0.314155 -0.03435 -0.050268 0 255 255
-0.30444 -0.03232 -0.048697 0 255 255
-0.294717 -0.030352 -0.047126 0 255 255
-0.314465 -0.031388 -0.050268 0 255 255
-0.314562 -0.0304 -0.050268 0 255 255
-0.314656 -0.029411 -0.050268 0 255 255
-0.304911 -0.027534 -0.048697 0 255 255
-0.324673 -0.028291 -0.051839 0 255 255
-0.314919 -0.026444 -0.050268 0 255 255
-0.305156 -0.02466 -0.048697 0 255 255
-0.305232 -0.023701 -0.048697 0 255 255
-0.305305 -0.022742 -0.048697 0 255 255
-0.305375 -0.021782 -0.048697 0 255 255
-0.305442 -0.020823 -0.048697 0 255 255
-0.275941 -0.017941 -0.043985 0 255 255
-0.275996 -0.017074 -0.043985 0 255 255
-0.285907 -0.016786 -0.045555 0 255 255
-0.276098 -0.01534 -0.043985 0 255 255
-0.286007 -0.014989 -0.045555 0 255 255
-0.286055 -0.01404 -0.045555 0 255 255
-0.276232 -0.012689 -0.043985 0 255 255
-0.266402 -0.011445 -0.042414 0 255 255
-0.266437 -0.010608 -0.042414 0 255 255
-0.266469 -0.009771 -0.042414 0 255 255
-0.27637 -0.009216 -0.043985 0 255 255
-0.286269 -0.008646 -0.045555 0 255 255
-0.276423 -0.00748 -0.043985 0 255 255
-0.286316 -0.006897 -0.045555 0 255 255
-0.26659 -0.005538 -0.042414 0 255 255
-0.286355 -0.005048 -0.045555 0 255 255
-0.296244 -0.004292 -0.047126 0 255 255
-0.306132 -0.003473 -0.048697 0 255 255
-0.380521 0.059588 -0.061264 0 255 255
-0.321819 0.051432 -0.051839 0 255 255
-0.350897 0.05721 -0.056552 0 255 255
-0.350716 0.058312 -0.056552 0 255 255
-0.350531 0.059414 -0.056552 0 255 255
-0.340611 0.058834 -0.054981 0 255 255
-0.301519 0.053057 -0.048697 0 255 255
-0.320792 0.057488 -0.051839 0 255 255
-0.310895 0.056723 -0.050268 0 255 255
-0.310715 0.0577 -0.050268 0 255 255
-0.329941 0.062343 -0.05341 0 255 255
-0.339441 0.065243 -0.054981 0 255 255
-0.310157 0.060626 -0.050268 0 255 255
-0.300279 0.059675 -0.048697 0 255 255
-0.29041 0.058662 -0.047126 0 255 255
-0.290224 0.059574 -0.047126 0 255 255
-0.280368 0.05847 -0.045555 0 255 255
-0.309167 0.06549 -0.050268 0 255 255
-0.337925 0.072692 -0.054981 0 255 255
-0.36664 0.080075 -0.059693 0 255 255
-0.404953 0.089776 -0.065977 0 255 255
-0.414304 0.093216 -0.067548 0 255 255
-0.442894 0.101111 -0.07226 0 255 255
-0.461816 0.106958 -0.075402 0 255 255
-0.432636 0.101633 -0.070689 0 255 255
-0.480349 0.114435 -0.078544 0 255 255
-0.441588 0.106668 -0.07226 0 255 255
-0.431659 0.105706 -0.070689 0 255 255
-0.460079 0.114199 -0.075402 0 255 255
-0.450141 0.113235 -0.073831 0 255 255
-0.421073 0.10733 -0.069119 0 255 255
-0.420734 0.108653 -0.069119 0 255 255
-0.449054 0.117472 -0.073831 0 255 255
-0.448682 0.118882 -0.073831 0 255 255
-0.467384 0.12541 -0.076973 0 255 255
-0.447927 0.121699 -0.073831 0 255 255
-0.476109 0.130963 -0.078544 0 255 255
-0.475695 0.132459 -0.078544 0 255 255
-0.456265 0.128594 -0.075402 0 255 255
-0.48435 0.138154 -0.080115 0 255 255
-0.474425 0.136936 -0.078544 0 255 255
-0.455033 0.132889 -0.075402 0 255 255
-0.464084 0.137116 -0.076973 0 255 255
-0.444727 0.132917 -0.073831 0 255 255
-0.463214 0.140029 -0.076973 0 255 255
-0.453327 0.138596 -0.075402 0 255 255
-0.443454 0.137102 -0.073831 0 255 255
-0.433596 0.135548 -0.07226 0 255 255
-0.442584 0.139886 -0.073831 0 255 255
-0.442143 0.141276 -0.073831 0 255 255
-0.451094 0.145699 -0.075402 0 255 255
-0.469411 0.153246 -0.078544 0 255 255
-0.459549 0.151625 -0.076973 0 255 255
-0.477808 0.159316 -0.080115 0 255 255
-0.458587 0.15451 -0.076973 0 255 255
-0.467448 0.159132 -0.078544 0 255 255
-0.485624 0.167024 -0.081686 0 255 255
-0.485097 0.168549 -0.081686 0 255 255
-0.475246 0.166801 -0.080115 0 255 255
-0.493336 0.174893 -0.083257 0 255 255
-0.492784 0.176442 -0.083257 0 255 255
-0.464366 0.167915 -0.078544 0 255 255
-0.491666 0.179535 -0.083257 0 255 255
-0.4911 0.181079 -0.083257 0 255 255
-0.499783 0.186066 -0.084827 0 255 255
-0.489952 0.184161 -0.083257 0 255 255
-0.489371 0.185699 -0.083257 0 255 255
-0.479563 0.183703 -0.081686 0 255 255
-0.506617 0.195894 -0.086398 0 255 255
-0.487599 0.190303 -0.083257 0 255 255
-0.486999 0.191834 -0.083257 0 255 255
-0.504748 0.20066 -0.086398 0 255 255
-0.49495 0.198567 -0.084827 0 255 255
-0.494324 0.200121 -0.084827 0 255 255
-0.493692 0.201673 -0.084827 0 255 255
-0.483926 0.19946 -0.083257 0 255 255
-0.483297 0.200979 -0.083257 0 255 255
-0.500877 0.210138 -0.086398 0 255 255
-0.482024 0.204012 -0.083257 0 255 255
-0.508629 0.217159 -0.087969 0 255 255
-0.498874 0.214849 -0.086398 0 255 255
-0.507255 0.22035 -0.087969 0 255 255
-0.497514 0.217979 -0.086398 0 255 255
-0.50586 0.223533 -0.087969 0 255 255
-0.478094 0.213061 -0.083257 0 255 255
-0.495438 0.222659 -0.086398 0 255 255
-0.494736 0.224214 -0.086398 0 255 255
-0.511994 0.233977 -0.08954 0 255 255
-0.502287 0.231451 -0.087969 0 255 255
-0.501557 0.233028 -0.087969 0 255 255
-0.518709 0.242981 -0.091111 0 255 255
-0.509013 0.240392 -0.08954 0 255 255
-0.508255 0.24199 -0.08954 0 255 255
-0.498589 0.239312 -0.087969 0 255 255
-0.506725 0.245179 -0.08954 0 255 255
-0.523705 0.255428 -0.092682 0 255 255
-0.505174 0.248358 -0.08954 0 255 255
-0.513241 0.254328 -0.091111 0 255 255
-0.521274 0.260352 -0.092682 0 255 255
-0.529275 0.266429 -0.094253 0 255 255
-0.519628 0.263622 -0.092682 0 255 255
-0.527591 0.269749 -0.094253 0 255 255
-0.535519 0.275929 -0.095824 0 255 255
-0.51712 0.268508 -0.092682 0 255 255
-0.533775 0.279288 -0.095824 0 255 255
-0.524207 0.276266 -0.094253 0 255 255
-0.523337 0.277912 -0.094253 0 255 255
-0.531169 0.284214 -0.095824 0 255 255
-0.52158 0.281195 -0.094253 0 255 255
-0.520694 0.282832 -0.094253 0 255 255
-0.519803 0.284466 -0.094253 0 255 255
-0.527555 0.290866 -0.095824 0 255 255
-0.518006 0.287726 -0.094253 0 255 255
-0.534336 0.298998 -0.097394 0 255 255
-0.516188 0.290975 -0.094253 0 255 255
-0.523859 0.297472 -0.095824 0 255 255
-0.531494 0.30402 -0.097394 0 255 255
-0.513422 0.295827 -0.094253 0 255 255
-0.521032 0.302396 -0.095824 0 255 255
-0.520079 0.304032 -0.095824 0 255 255
-0.510612 0.300653 -0.094253 0 255 255
-0.518159 0.307294 -0.095824 0 255 255
-0.525669 0.313984 -0.097394 0 255 255
-0.52468 0.315634 -0.097394 0 255 255
-0.51524 0.312163 -0.095824 0 255 255
-0.505826 0.308636 -0.094253 0 255 255
-0.521682 0.320565 -0.097394 0 255 255
-0.512275 0.317005 -0.095824 0 255 255
-0.52804 0.329059 -0.098965 0 255 255
-0.527003 0.330717 -0.098965 0 255 255
-0.517613 0.327095 -0.097394 0 255 255
-0.533247 0.339323 -0.100536 0 255 255
-0.515548 0.330341 -0.097394 0 255 255
-0.522806 0.337313 -0.098965 0 255 255
-0.50518 0.328193 -0.095824 0 255 255
-0.520676 0.340591 -0.098965 0 255 255
-0.511356 0.336793 -0.097394 0 255 255
-0.518526 0.343856 -0.098965 0 255 255
-0.517443 0.345483 -0.098965 0 255 255
-0.508159 0.341597 -0.097394 0 255 255
-0.515262 0.348727 -0.098965 0 255 255
-0.53055 0.361374 -0.102107 0 255 255
-0.521267 0.357454 -0.100536 0 255 255
-0.528269 0.3647 -0.102107 0 255 255
-0.52712 0.366358 -0.102107 0 255 255
-0.534059 0.373674 -0.103678 0 255 255
-0.532882 0.37535 -0.103678 0 255 255
-0.523644 0.37131 -0.102107 0 255 255
-0.530513 0.378691 -0.103678 0 255 255
-0.529321 0.380356 -0.103678 0 255 255
-0.520121 0.376228 -0.102107 0 255 255
-0.52692 0.383674 -0.103678 0 255 255
-0.509782 0.373651 -0.100536 0 255 255
-0.500659 0.369387 -0.098965 0 255 255
-0.491567 0.36507 -0.097394 0 255 255
-0.474598 0.354786 -0.094253 0 255 255
-0.473481 0.356275 -0.094253 0 255 255
-0.472359 0.357761 -0.094253 0 255 255
-0.455525 0.347269 -0.091111 0 255 255
-0.446597 0.342686 -0.08954 0 255 255
-0.429886 0.332014 -0.086398 0 255 255
-0.428841 0.333363 -0.086398 0 255 255
-0.420013 0.328623 -0.084827 0 255 255
-0.418979 0.329941 -0.084827 0 255 255
-0.41794 0.331255 -0.084827 0 255 255
-0.416956 0.332494 -0.084827 0 255 255
-0.423611 0.339984 -0.086398 0 255 255
-0.422541 0.341313 -0.086398 0 255 255
-0.421467 0.342639 -0.086398 0 255 255
-0.412745 0.337707 -0.084827 0 255 255
-0.419305 0.34528 -0.086398 0 255 255
-0.416033 0.349217 -0.086398 0 255 255
-0.430022 0.363268 -0.08954 0 255 255
-0.451384 0.383886 -0.094253 0 255 255
-0.450176 0.385303 -0.094253 0 255 255
-0.456515 0.393081 -0.095824 0 255 255
-0.455277 0.394513 -0.095824 0 255 255
-0.454036 0.395941 -0.095824 0 255 255
-0.45279 0.397365 -0.095824 0 255 255
-0.458941 0.405324 -0.097394 0 255 255
-0.472429 0.419885 -0.100536 0 255 255
-0.471108 0.421367 -0.100536 0 255 255
-0.469782 0.422845 -0.100536 0 255 255
-0.446492 0.404429 -0.095824 0 255 255
-0.437921 0.399176 -0.094253 0 255 255
-0.436665 0.40055 -0.094253 0 255 255
-0.428147 0.395221 -0.092682 0 255 255
-0.405262 0.376329 -0.087969 0 255 255
-0.411294 0.384344 -0.08954 0 255 255
-0.395695 0.372103 -0.086398 0 255 255
-0.394524 0.373344 -0.086398 0 255 255
-0.407653 0.388203 -0.08954 0 255 255
-0.413562 0.396315 -0.091111 0 255 255
-0.419424 0.404467 -0.092682 0 255 255
-0.4465 0.433294 -0.098965 0 255 255
-0.438071 0.427794 -0.097394 0 255 255
-0.443769 0.436091 -0.098965 0 255 255
-0.456441 0.451371 -0.102107 0 255 255
-0.372585 0.447985 -0.092682 0 255 255
-0.358594 0.433928 -0.08954 0 255 255
-0.382297 0.465582 -0.095824 0 255 255
-0.355936 0.43611 -0.08954 0 255 255
-0.316011 0.392197 -0.080115 0 255 255
-0.308606 0.385478 -0.078544 0 255 255
-0.307393 0.386446 -0.078544 0 255 255
-0.367967 0.538006 -0.103678 0 255 255
-0.371825 0.547329 -0.105249 0 255 255
-0.364579 0.540308 -0.103678 0 255 255
-0.329977 0.49217 -0.094253 0 255 255
-0.366746 0.550745 -0.105249 0 255 255
-0.354118 0.53542 -0.102107 0 255 255
-0.357856 0.544784 -0.103678 0 255 255
-0.312974 0.479735 -0.091111 0 255 255
-0.349056 0.538734 -0.102107 0 255 255
-0.33133 0.514912 -0.097394 0 255 255
-0.319075 0.499307 -0.094253 0 255 255
-0.296337 0.466953 -0.087969 0 255 255
-0.300135 0.476237 -0.08954 0 255 255
-0.298637 0.477178 -0.08954 0 255 255
-0.150058 0.266854 -0.048697 0 255 255
-0.154032 0.275948 -0.050268 0 255 255
-0.148378 0.267792 -0.048697 0 255 255
-0.152295 0.27691 -0.050268 0 255 255
-0.145848 0.269178 -0.048697 0 255 255
-0.154356 0.287031 -0.051839 0 255 255
-0.148919 0.289889 -0.051839 0 255 255
-0.151552 0.299632 -0.05341 0 255 255
-0.141751 0.282453 -0.050268 0 255 255
-0.154068 0.309419 -0.054981 0 255 255
-2.08948 4.58282 -0.801148 0 255 255
-2.05473 4.54437 -0.793293 0 255 255
-2.0364 4.54179 -0.791722 0 255 255
-2.00607 4.51207 -0.785439 0 255 255
-1.99508 4.52773 -0.78701 0 255 255
-1.99271 4.56113 -0.791722 0 255 255
-1.94775 4.49453 -0.779155 0 255 255
-1.94142 4.51877 -0.782297 0 255 255
-1.9156 4.49759 -0.777584 0 255 255
-1.90146 4.50359 -0.777584 0 255 255
-1.92162 4.59153 -0.791722 0 255 255
-1.88978 4.59405 -0.790151 0 255 255
-1.86415 4.57253 -0.785439 0 255 255
-1.85348 4.58752 -0.78701 0 255 255
-1.85741 4.63916 -0.794864 0 255 255
-1.82826 4.60825 -0.788581 0 255 255
-1.80655 4.59559 -0.785439 0 255 255
-1.79186 4.64371 -0.791722 0 255 255
-1.73142 4.52939 -0.771301 0 255 255
-1.72068 4.54404 -0.772872 0 255 255
-1.70025 4.53064 -0.76973 0 255 255
-1.69289 4.55447 -0.772872 0 255 255
-1.75022 4.75439 -0.80586 0 255 255
-1.74204 4.77842 -0.809002 0 255 255
-1.68342 4.66311 -0.788581 0 255 255
-1.66211 4.64978 -0.785439 0 255 255
-1.63351 4.61802 -0.779155 0 255 255
-1.619 4.62313 -0.779155 0 255 255
-1.65059 4.75854 -0.801148 0 255 255
-1.64204 4.78239 -0.804289 0 255 255
-1.63654 4.81557 -0.809002 0 255 255
-1.6403 4.87685 -0.818427 0 255 255
-1.64992 4.95695 -0.830994 0 255 255
-1.6467 4.99963 -0.837278 0 255 255
-2.5092 7.69965 -1.28812 0 255 255
-2.46812 7.73365 -1.29126 0 255 255
-2.44382 7.74137 -1.29126 0 255 255
-2.41654 7.73958 -1.28969 0 255 255
-2.39513 7.75657 -1.29126 0 255 255
-2.37651 7.78295 -1.2944 0 255 255
-2.35205 7.79038 -1.2944 0 255 255
-2.32192 7.7788 -1.29126 0 255 255
-2.29747 7.78606 -1.29126 0 255 255
-2.27853 7.8122 -1.2944 0 255 255
-2.25124 7.80983 -1.29283 0 255 255
-2.2294 7.82636 -1.2944 0 255 255
-2.2048 7.83332 -1.2944 0 255 255
-2.18018 7.84021 -1.2944 0 255 255
-2.15815 7.85655 -1.29597 0 255 255
-2.13346 7.86329 -1.29597 0 255 255
-2.10875 7.86995 -1.29597 0 255 255
-2.08539 7.87617 -1.29597 0 255 255
-2.06063 7.88269 -1.29597 0 255 255
-2.03586 7.88912 -1.29597 0 255 255
-2.01106 7.89548 -1.29597 0 255 255
-1.98866 7.91133 -1.29754 0 255 255
-1.96142 7.90796 -1.29597 0 255 255
-1.93656 7.91408 -1.29597 0 255 255
-1.91401 7.92973 -1.29754 0 255 255
-1.88909 7.9357 -1.29754 0 255 255
-1.86415 7.9416 -1.29754 0 255 255
-1.84142 7.95703 -1.29912 0 255 255
-1.8208 7.98204 -1.30226 0 255 255
-1.79355 7.97808 -1.30069 0 255 255
-1.76634 7.97403 -1.29912 0 255 255
-1.74339 7.98919 -1.30069 0 255 255
-1.71828 7.99463 -1.30069 0 255 255
-1.69315 7.99999 -1.30069 0 255 255
-1.67003 8.01494 -1.30226 0 255 255
-1.64285 8.01047 -1.30069 0 255 255
-1.62159 8.03495 -1.30383 0 255 255
-1.59582 8.03004 -1.30226 0 255 255
-1.57058 8.03502 -1.30226 0 255 255
-1.54579 8.04988 -1.30383 0 255 255
-1.5205 8.0547 -1.30383 0 255 255
-1.49839 8.06888 -1.3054 0 255 255
-1.47304 8.07355 -1.3054 0 255 255
-1.44766 8.07814 -1.3054 0 255 255
-1.42228 8.08264 -1.3054 0 255 255
-1.39661 8.0771 -1.30383 0 255 255
-1.37123 8.08145 -1.30383 0 255 255
-1.34907 8.1052 -1.30697 0 255 255
-1.3236 8.1094 -1.30697 0 255 255
-1.29812 8.11351 -1.30697 0 255 255
-1.2711 8.10779 -1.3054 0 255 255
-1.24712 8.12151 -1.30697 0 255 255
-1.2216 8.12539 -1.30697 0 255 255
-1.1975 8.13896 -1.30854 0 255 255
-1.17193 8.14268 -1.30854 0 255 255
-1.14634 8.14632 -1.30854 0 255 255
-1.12209 8.15967 -1.31011 0 255 255
-1.09513 8.15336 -1.30854 0 255 255
-1.06951 8.15676 -1.30854 0 255 255
-1.04656 8.16969 -1.31011 0 255 255
-1.02089 8.17294 -1.31011 0 255 255
-0.997595 8.19572 -1.31325 0 255 255
-0.970682 8.189 -1.31168 0 255 255
-0.944948 8.19201 -1.31168 0 255 255
-0.918108 8.18513 -1.31011 0 255 255
-0.893461 8.19779 -1.31168 0 255 255
-0.866661 8.19073 -1.31011 0 255 255
-0.841935 8.20324 -1.31168 0 255 255
-0.814202 8.18619 -1.30854 0 255 255
-0.792756 8.21806 -1.31325 0 255 255
-0.766019 8.21068 -1.31168 0 255 255
-0.740218 8.21304 -1.31168 0 255 255
-0.714414 8.21533 -1.31168 0 255 255
-0.690248 8.23721 -1.31483 0 255 255
0.822761 2.20175 -0.373869 0 255 255
3.04993 7.86319 -1.34153 0 255 255
3.07102 7.84438 -1.33996 0 255 255
3.09565 7.83469 -1.33996 0 255 255
3.12025 7.82493 -1.33996 0 255 255
3.1485 7.82425 -1.34153 0 255 255
3.17307 7.81432 -1.34153 0 255 255
3.1976 7.80431 -1.34153 0 255 255
3.21833 7.7851 -1.33996 0 255 255
3.24277 7.77495 -1.33996 0 255 255
3.26718 7.76473 -1.33996 0 255 255
3.29542 7.76351 -1.34153 0 255 255
0.955466 2.21219 -0.383294 0 255 255
0.950578 2.18201 -0.378581 0 255 255
3.39668 7.73053 -1.3431 0 255 255
3.37961 7.63012 -1.32739 0 255 255
3.42371 7.66455 -1.33525 0 255 255
3.44777 7.65376 -1.33525 0 255 255
3.47588 7.65188 -1.33682 0 255 255
3.4999 7.64092 -1.33682 0 255 255
3.52389 7.62989 -1.33682 0 255 255
3.54784 7.61878 -1.33682 0 255 255
3.57176 7.6076 -1.33682 0 255 255
3.59564 7.59634 -1.33682 0 255 255
3.61949 7.58501 -1.33682 0 255 255
3.64758 7.5825 -1.33839 0 255 255
3.66707 7.56212 -1.33682 0 255 255
3.69081 7.55056 -1.33682 0 255 255
3.71452 7.53893 -1.33682 0 255 255
3.74257 7.53606 -1.33839 0 255 255
3.76181 7.51544 -1.33682 0 255 255
3.7854 7.50358 -1.33682 0 255 255
3.80895 7.49165 -1.33682 0 255 255
3.83117 7.48032 -1.33682 0 255 255
3.85465 7.46825 -1.33682 0 255 255
3.87809 7.4561 -1.33682 0 255 255
3.9015 7.44388 -1.33682 0 255 255
3.92486 7.43159 -1.33682 0 255 255
3.94819 7.41922 -1.33682 0 255 255
3.97148 7.40678 -1.33682 0 255 255
3.99473 7.39427 -1.33682 0 255 255
4.02266 7.39035 -1.33839 0 255 255
4.04111 7.36902 -1.33682 0 255 255
4.05818 7.34835 -1.33525 0 255 255
4.08605 7.3442 -1.33682 0 255 255
4.1091 7.33132 -1.33682 0 255 255
4.12726 7.30978 -1.33525 0 255 255
4.1502 7.29678 -1.33525 0 255 255
4.1731 7.2837 -1.33525 0 255 255
4.2009 7.27911 -1.33682 0 255 255
4.22375 7.26588 -1.33682 0 255 255
4.24655 7.25257 -1.33682 0 255 255
4.26932 7.23919 -1.33682 0 255 255
4.287 7.21726 -1.33525 0 255 255
4.31472 7.21223 -1.33682 0 255 255
4.33101 7.19093 -1.33525 0 255 255
4.3587 7.18574 -1.33682 0 255 255
4.38125 7.17201 -1.33682 0 255 255
4.40501 7.15744 -1.33682 0 255 255
4.42747 7.14357 -1.33682 0 255 255
4.45114 7.12884 -1.33682 0 255 255
4.47227 7.1156 -1.33682 0 255 255
4.4946 7.10152 -1.33682 0 255 255
4.51565 7.08815 -1.33682 0 255 255
4.5379 7.07393 -1.33682 0 255 255
4.5601 7.05964 -1.33682 0 255 255
4.58225 7.04528 -1.33682 0 255 255
4.60436 7.03085 -1.33682 0 255 255
4.62643 7.01635 -1.33682 0 255 255
4.64845 7.00178 -1.33682 0 255 255
4.66493 6.97893 -1.33525 0 255 255
4.68684 6.96424 -1.33525 0 255 255
4.70869 6.94948 -1.33525 0 255 255
4.7305 6.93466 -1.33525 0 255 255
4.74667 6.91162 -1.33368 0 255 255
4.76836 6.89668 -1.33368 0 255 255
4.79001 6.88166 -1.33368 0 255 255
4.81727 6.87467 -1.33525 0 255 255
4.83315 6.85143 -1.33368 0 255 255
4.84774 6.829 -1.3321 0 255 255
4.87491 6.82178 -1.33368 0 255 255
4.89632 6.80643 -1.33368 0 255 255
4.91189 6.78301 -1.3321 0 255 255
4.93317 6.76755 -1.3321 0 255 255
4.96025 6.75998 -1.33368 0 255 255
4.96973 6.72848 -1.33053 0 255 255
4.99674 6.72075 -1.3321 0 255 255
5.01191 6.69712 -1.33053 0 255 255
5.03887 6.68923 -1.3321 0 255 255
5.05389 6.66549 -1.33053 0 255 255
5.0748 6.64958 -1.33053 0 255 255
5.08965 6.62578 -1.32896 0 255 255
5.11648 6.61757 -1.33053 0 255 255
5.13118 6.59367 -1.32896 0 255 255
5.15187 6.57751 -1.32896 0 255 255
5.17251 6.5613 -1.32896 0 255 255
5.1931 6.54501 -1.32896 0 255 255
5.21249 6.52958 -1.32896 0 255 255
5.23412 6.51226 -1.32896 0 255 255
5.25455 6.49578 -1.32896 0 255 255
5.27493 6.47924 -1.32896 0 255 255
5.30039 6.4712 -1.33053 0 255 255
5.31441 6.4469 -1.32896 0 255 255
5.33464 6.43017 -1.32896 0 255 255
5.35481 6.41338 -1.32896 0 255 255
5.36858 6.38896 -1.32739 0 255 255
5.39501 6.37961 -1.32896 0 255 255
5.41502 6.36263 -1.32896 0 255 255
5.43498 6.34558 -1.32896 0 255 255
5.44844 6.321 -1.32739 0 255 255
5.47474 6.31131 -1.32896 0 255 255
5.48695 6.2876 -1.32739 0 255 255
5.50016 6.26291 -1.32582 0 255 255
5.51981 6.2456 -1.32582 0 255 255
5.54597 6.2356 -1.32739 0 255 255
5.55894 6.21079 -1.32582 0 255 255
5.57182 6.18596 -1.32425 0 255 255
5.59122 6.16843 -1.32425 0 255 255
5.61057 6.15083 -1.32425 0 255 255
5.61652 6.11862 -1.32111 0 255 255
5.62901 6.09369 -1.31954 0 255 255
5.6145 6.03981 -1.31168 0 255 255
5.62671 6.01493 -1.31011 0 255 255
5.63203 5.98284 -1.30697 0 255 255
5.63722 5.95078 -1.30383 0 255 255
5.63544 5.9116 -1.29912 0 255 255
5.64715 5.88674 -1.29754 0 255 255
5.65876 5.86186 -1.29597 0 255 255
5.66338 5.82989 -1.29283 0 255 255
5.67477 5.80501 -1.29126 0 255 255
5.6722 5.76603 -1.28655 0 255 255
5.66249 5.7201 -1.28026 0 255 255
5.6874 5.70928 -1.28184 0 255 255
5.68434 5.67047 -1.27712 0 255 255
5.68108 5.63172 -1.27241 0 255 255
5.69171 5.60691 -1.27084 0 255 255
5.70224 5.5821 -1.26927 0 255 255
5.69755 5.54449 -1.26456 0 255 255
5.7159 5.52557 -1.26456 0 255 255
5.71186 5.48706 -1.25984 0 255 255
5.71479 5.45545 -1.2567 0 255 255
5.71662 5.42487 -1.25356 0 255 255
5.72645 5.40011 -1.25199 0 255 255
5.72897 5.36859 -1.24885 0 255 255
5.73858 5.34383 -1.24728 0 255 255
5.74085 5.31236 -1.24414 0 255 255
5.74297 5.28093 -1.24099 0 255 255
5.74495 5.24954 -1.23785 0 255 255
5.74679 5.21819 -1.23471 0 255 255
5.75583 5.19349 -1.23314 0 255 255
5.75741 5.1622 -1.23 0 255 255
5.76622 5.13752 -1.22843 0 255 255
5.76754 5.10628 -1.22529 0 255 255
5.77614 5.08161 -1.22371 0 255 255
5.76977 5.04394 -1.219 0 255 255
5.77814 5.01931 -1.21743 0 255 255
5.7864 4.99469 -1.21586 0 255 255
5.79457 4.97005 -1.21429 0 255 255
5.80263 4.94542 -1.21272 0 255 255
5.81061 4.92078 -1.21115 0 255 255
2.74266 2.29322 -0.568658 0 255 255
2.89354 2.37425 -0.595363 0 255 255
2.56327 1.72765 -0.491685 0 255 255
2.42097 1.6207 -0.463409 0 255 255
2.47539 1.64589 -0.472834 0 255 255
2.51351 1.65988 -0.479118 0 255 255
2.5022 1.64114 -0.475976 0 255 255
2.50734 1.63327 -0.475976 0 255 255
2.52076 1.63075 -0.477547 0 255 255
2.49263 1.60147 -0.471263 0 255 255
2.49765 1.59363 -0.471263 0 255 255
2.50264 1.58578 -0.471263 0 255 255
2.49925 1.57265 -0.469692 0 255 255
2.51256 1.57002 -0.471263 0 255 255
2.50909 1.55691 -0.469692 0 255 255
2.50556 1.54384 -0.468122 0 255 255
2.51882 1.54112 -0.469692 0 255 255
2.51521 1.52807 -0.468122 0 255 255
2.5245 1.51267 -0.468122 0 255 255
2.52923 1.50474 -0.468122 0 255 255
2.51694 1.48674 -0.46498 0 255 255
2.50456 1.46883 -0.461838 0 255 255
2.5177 1.46592 -0.463409 0 255 255
2.52229 1.45801 -0.463409 0 255 255
2.52686 1.45008 -0.463409 0 255 255
2.52282 1.43724 -0.461838 0 255 255
2.45855 1.39042 -0.449271 0 255 255
2.51458 1.41169 -0.458696 0 255 255
2.52763 1.40859 -0.460267 0 255 255
2.5234 1.39587 -0.458696 0 255 255
2.51912 1.38318 -0.457125 0 255 255
2.53212 1.37998 -0.458696 0 255 255
2.52776 1.36732 -0.457125 0 255 255
2.53204 1.35938 -0.457125 0 255 255
2.52758 1.34677 -0.455555 0 255 255
2.51434 1.32959 -0.452413 0 255 255
2.51851 1.32168 -0.452413 0 255 255
2.51389 1.3092 -0.450842 0 255 255
2.50921 1.29676 -0.449271 0 255 255
2.52206 1.29338 -0.450842 0 255 255
2.52611 1.28545 -0.450842 0 255 255
2.50369 1.26416 -0.446129 0 255 255
2.51648 1.26071 -0.4477 0 255 255
2.51159 1.2484 -0.446129 0 255 255
2.53321 1.24924 -0.449271 0 255 255
2.52825 1.23694 -0.4477 0 255 255
2.52324 1.22468 -0.446129 0 255 255
2.49148 1.1996 -0.439846 0 255 255
2.52197 1.20454 -0.444558 0 255 255
2.51682 1.19238 -0.442988 0 255 255
2.52055 1.18447 -0.442988 0 255 255
2.53321 1.18072 -0.444558 0 255 255
2.53691 1.17275 -0.444558 0 255 255
2.53161 1.16066 -0.442988 0 255 255
2.52625 1.14862 -0.441417 0 255 255
2.52984 1.14067 -0.441417 0 255 255
2.53322 1.13316 -0.441417 0 255 255
2.53677 1.1252 -0.441417 0 255 255
2.53125 1.11325 -0.439846 0 255 255
2.52932 1.09296 -0.438275 0 255 255
2.55089 1.09279 -0.441417 0 255 255
2.52705 1.07319 -0.436704 0 255 255
2.5304 1.06524 -0.436704 0 255 255
2.55178 1.06534 -0.439846 0 255 255
2.55511 1.05732 -0.439846 0 255 255
2.54929 1.04554 -0.438275 0 255 255
2.55256 1.03753 -0.438275 0 255 255
2.54664 1.02581 -0.436704 0 255 255
2.53151 1.01048 -0.433562 0 255 255
2.53467 1.00252 -0.433562 0 255 255
2.53798 0.994113 -0.433562 0 255 255
2.52268 0.97899 -0.43042 0 255 255
2.54418 0.978148 -0.433562 0 255 255
2.53784 0.967078 -0.431991 0 255 255
2.53163 0.955613 -0.43042 0 255 255
2.54387 0.951113 -0.431991 0 255 255
2.53758 0.939688 -0.43042 0 255 255
2.54052 0.931711 -0.43042 0 255 255
2.53415 0.920353 -0.42885 0 255 255
2.53703 0.912388 -0.42885 0 255 255
2.53989 0.904412 -0.42885 0 255 255
2.54552 0.888437 -0.42885 0 255 255
2.52978 0.873543 -0.425708 0 255 255
2.5512 0.87198 -0.42885 0 255 255
2.55378 0.864407 -0.42885 0 255 255
2.56585 0.859517 -0.43042 0 255 255
2.56853 0.851451 -0.43042 0 255 255
2.54305 0.834143 -0.425708 0 255 255
2.55505 0.829199 -0.427279 0 255 255
2.54824 0.818149 -0.425708 0 255 255
2.56021 0.81313 -0.427279 0 255 255
2.53448 0.796202 -0.422566 0 255 255
2.5464 0.791166 -0.424137 0 255 255
2.53943 0.780262 -0.422566 0 255 255
2.54187 0.772281 -0.422566 0 255 255
2.50645 0.752926 -0.416283 0 255 255
2.51827 0.74786 -0.417853 0 255 255
5.45817 1.60228 -0.904826 0 255 255
5.33987 1.54936 -0.884404 0 255 255
5.44914 1.56252 -0.901684 0 255 255
5.47302 1.55077 -0.904826 0 255 255
5.73509 1.56679 -0.945668 0 255 255
6.4837 1.74944 -1.0682 0 255 255
6.49871 1.7316 -1.06977 0 255 255
6.51367 1.71369 -1.07134 0 255 255
6.52858 1.6957 -1.07291 0 255 255
6.52431 1.67273 -1.07134 0 255 255
6.03168 1.52625 -0.989653 0 255 255
6.02686 1.5049 -0.988082 0 255 255
6.03156 1.48596 -0.988082 0 255 255
5.82854 1.35849 -0.951952 0 255 255
5.83278 1.34017 -0.951952 0 255 255
5.82733 1.31966 -0.950381 0 255 255
5.81217 1.29704 -0.947239 0 255 255
5.79692 1.27454 -0.944097 0 255 255
5.81055 1.25841 -0.945668 0 255 255
5.7855 1.23397 -0.940956 0 255 255
5.77969 1.21376 -0.939385 0 255 255
5.76413 1.19159 -0.936243 0 255 255
5.77752 1.17545 -0.937814 0 255 255
5.7715 1.15535 -0.936243 0 255 255
5.7751 1.13722 -0.936243 0 255 255
5.76895 1.11719 -0.934672 0 255 255
5.70452 1.08613 -0.923676 0 255 255
5.73702 1.07366 -0.928389 0 255 255
5.77941 1.06176 -0.934672 0 255 255
5.78271 1.0436 -0.934672 0 255 255
5.79569 1.02715 -0.936243 0 255 255
5.79889 1.00894 -0.936243 0 255 255
5.81159 0.993394 -0.937814 0 255 255
5.82459 0.975747 -0.939385 0 255 255
5.83737 0.959045 -0.940956 0 255 255
5.85011 0.942274 -0.942527 0 255 255
5.87239 0.927993 -0.945668 0 255 255
5.91431 0.915585 -0.951952 0 255 255
5.91018 0.876956 -0.950381 0 255 255
5.84449 0.848454 -0.939385 0 255 255
5.92535 0.841192 -0.951952 0 255 255
5.95731 0.826646 -0.956664 0 255 255
5.99902 0.813231 -0.962948 0 255 255
6.04071 0.799565 -0.969232 0 255 255
6.1021 0.787111 -0.978657 0 255 255
6.15353 0.774098 -0.986511 0 255 255
5.90528 0.349802 -0.940956 0 255 255
5.91621 0.331805 -0.942527 0 255 255
5.92709 0.313737 -0.944097 0 255 255
5.92804 0.295116 -0.944097 0 255 255
5.92894 0.27649 -0.944097 0 255 255
5.93965 0.258292 -0.945668 0 255 255
5.9503 0.24003 -0.947239 0 255 255
5.96089 0.221701 -0.94881 0 255 255
5.96156 0.202974 -0.94881 0 255 255
5.96216 0.184243 -0.94881 0 255 255
5.97259 0.165787 -0.950381 0 255 255
5.9632 0.14678 -0.94881 0 255 255
5.99326 0.12868 -0.953523 0 255 255
5.98376 0.109671 -0.951952 0 255 255
5.98407 0.090871 -0.951952 0 255 255
5.98433 0.072072 -0.951952 0 255 255
5.9944 0.05336 -0.953523 0 255 255
5.99454 0.034526 -0.953523 0 255 255
5.99462 0.015695 -0.953523 0 255 255
5.98476 -0.003134 -0.951952 0 255 255
5.9946 -0.021971 -0.953523 0 255 255
5.98462 -0.040737 -0.951952 0 255 255
5.98446 -0.060582 -0.951952 0 255 255
5.98424 -0.079383 -0.951952 0 255 255
5.97408 -0.09802 -0.950381 0 255 255
5.98362 -0.116981 -0.951952 0 255 255
5.98322 -0.135778 -0.951952 0 255 255
5.96302 -0.154064 -0.94881 0 255 255
5.96251 -0.172797 -0.94881 0 255 255
5.97181 -0.191845 -0.950381 0 255 255
5.95144 -0.209909 -0.947239 0 255 255
5.96062 -0.228984 -0.94881 0 255 255
5.95 -0.247298 -0.947239 0 255 255
5.94919 -0.265989 -0.947239 0 255 255
5.95819 -0.28515 -0.94881 0 255 255
5.35562 -0.273178 -0.852987 0 255 255
5.27585 -0.28573 -0.84042 0 255 255
5.31436 -0.304563 -0.846703 0 255 255
5.15359 -0.344108 -0.821569 0 255 255
5.24115 -0.366497 -0.835707 0 255 255
5.23012 -0.382241 -0.834136 0 255 255
5.21905 -0.397919 -0.832565 0 255 255
5.20793 -0.413532 -0.830994 0 255 255
5.17708 -0.427453 -0.826282 0 255 255
5.16587 -0.442871 -0.824711 0 255 255
5.16445 -0.459098 -0.824711 0 255 255
5.14332 -0.47351 -0.821569 0 255 255
5.1418 -0.489666 -0.821569 0 255 255
5.12058 -0.503882 -0.818427 0 255 255
5.10915 -0.518969 -0.816856 0 255 255
5.11732 -0.536046 -0.818427 0 255 255
5.09597 -0.55 -0.815286 0 255 255
5.0844 -0.564916 -0.813715 0 255 255
5.07279 -0.579765 -0.812144 0 255 255
5.07094 -0.595699 -0.812144 0 255 255
5.06905 -0.611627 -0.812144 0 255 255
5.0377 -0.623907 -0.807431 0 255 255
5.03571 -0.63973 -0.807431 0 255 255
5.02388 -0.654272 -0.80586 0 255 255
5.01201 -0.668746 -0.804289 0 255 255
5.0001 -0.683151 -0.802718 0 255 255
4.99793 -0.698856 -0.802718 0 255 255
4.99571 -0.714554 -0.802718 0 255 255
4.9739 -0.727387 -0.799577 0 255 255
4.96169 -0.742415 -0.798006 0 255 255
4.95934 -0.757999 -0.798006 0 255 255
4.94717 -0.772053 -0.796435 0 255 255
4.95448 -0.789145 -0.798006 0 255 255
4.93248 -0.801538 -0.794864 0 255 255
4.92993 -0.817029 -0.794864 0 255 255
4.9176 -0.830868 -0.793293 0 255 255
4.9247 -0.847989 -0.794864 0 255 255
4.91229 -0.861749 -0.793293 0 255 255
4.89984 -0.875441 -0.791722 0 255 255
4.90678 -0.892597 -0.793293 0 255 255
4.89424 -0.90621 -0.791722 0 255 255
4.88166 -0.919752 -0.790151 0 255 255
4.87875 -0.935084 -0.790151 0 255 255
4.86609 -0.948517 -0.788581 0 255 255
4.88246 -0.967639 -0.791722 0 255 255
4.91813 -0.990775 -0.798006 0 255 255
5.09216 -1.07587 -0.827853 0 255 255
5.14669 -1.10429 -0.837278 0 255 255
5.17214 -1.12676 -0.84199 0 255 255
5.24552 -1.16098 -0.854557 0 255 255
5.16476 -1.16014 -0.84199 0 255 255
5.25738 -1.19831 -0.857699 0 255 255
5.26321 -1.21704 -0.85927 0 255 255
5.28991 -1.27585 -0.865554 0 255 255
5.31465 -1.2995 -0.870266 0 255 255
5.53626 -1.39061 -0.907967 0 255 255
5.47444 -1.39338 -0.898542 0 255 255
5.57523 -1.4377 -0.915822 0 255 255
5.64247 -1.49291 -0.928389 0 255 255
5.68544 -1.52341 -0.936243 0 255 255
5.78547 -1.56971 -0.953523 0 255 255
5.80908 -1.59573 -0.958235 0 255 255
5.88939 -1.63881 -0.972373 0 255 255
5.88421 -1.6573 -0.972373 0 255 255
6.01224 -1.71263 -0.994366 0 255 255
6.0353 -1.73972 -0.999078 0 255 255
5.9824 -1.74484 -0.991224 0 255 255
6.09971 -1.80103 -1.01164 0 255 255
3.40958 -1.04176 -0.567087 0 255 255
3.38742 -1.04664 -0.563945 0 255 255
3.40297 -1.06316 -0.567087 0 255 255
3.38078 -1.0679 -0.563945 0 255 255
3.3774 -1.07852 -0.563945 0 255 255
3.3928 -1.09519 -0.567087 0 255 255
3.37995 -1.10278 -0.565516 0 255 255
3.37647 -1.11339 -0.565516 0 255 255
3.37296 -1.12399 -0.565516 0 255 255
3.37877 -1.13774 -0.567087 0 255 255
3.39387 -1.15471 -0.570229 0 255 255
3.38089 -1.16215 -0.568658 0 255 255
3.37722 -1.17277 -0.568658 0 255 255
3.37332 -1.18396 -0.568658 0 255 255
3.37889 -1.19785 -0.570229 0 255 255
3.3656 -1.20572 -0.568658 0 255 255
3.36201 -1.2157 -0.568658 0 255 255
3.36745 -1.22965 -0.570229 0 255 255
3.36357 -1.24022 -0.570229 0 255 255
3.36891 -1.25423 -0.571799 0 255 255
3.35571 -1.26133 -0.570229 0 255 255
3.3702 -1.27887 -0.57337 0 255 255
3.35694 -1.28592 -0.571799 0 255 255
3.3621 -1.30002 -0.57337 0 255 255
3.3396 -1.3034 -0.570229 0 255 255
3.34444 -1.31808 -0.571799 0 255 255
3.34946 -1.33224 -0.57337 0 255 255
3.34526 -1.34275 -0.57337 0 255 255
3.35018 -1.35696 -0.574941 0 255 255
3.3459 -1.36748 -0.574941 0 255 255
3.33246 -1.37422 -0.57337 0 255 255
3.32812 -1.38468 -0.57337 0 255 255
3.33286 -1.39895 -0.574941 0 255 255
3.32845 -1.40942 -0.574941 0 255 255
3.30584 -1.41211 -0.571799 0 255 255
3.31046 -1.42639 -0.57337 0 255 255
3.31502 -1.44072 -0.574941 0 255 255
3.30118 -1.44774 -0.57337 0 255 255
3.29661 -1.45811 -0.57337 0 255 255
3.30078 -1.47306 -0.574941 0 255 255
3.28739 -1.47879 -0.57337 0 255 255
3.28273 -1.48911 -0.57337 0 255 255
3.27803 -1.49942 -0.57337 0 255 255
3.27331 -1.50971 -0.57337 0 255 255
3.26855 -1.51998 -0.57337 0 255 255
3.2727 -1.53444 -0.574941 0 255 255
3.26786 -1.54471 -0.574941 0 255 255
3.27191 -1.55922 -0.576512 0 255 255
3.25809 -1.56521 -0.574941 0 255 255
3.23538 -1.56683 -0.571799 0 255 255
3.09732 -1.512 -0.548236 0 255 255
2.94191 -1.4476 -0.521531 0 255 255
2.88427 -1.43051 -0.512106 0 255 255
2.95845 -1.50286 -0.527815 0 255 255
3.19107 -1.63365 -0.570229 0 255 255
3.22103 -1.66178 -0.576512 0 255 255
3.21579 -1.6719 -0.576512 0 255 255
3.21052 -1.68199 -0.576512 0 255 255
3.21395 -1.69668 -0.578083 0 255 255
3.19989 -1.70213 -0.576512 0 255 255
3.20323 -1.71684 -0.578083 0 255 255
3.19782 -1.72689 -0.578083 0 255 255
3.19208 -1.73749 -0.578083 0 255 255
3.24722 -1.78075 -0.589079 0 255 255
3.25057 -1.79515 -0.59065 0 255 255
3.22734 -1.79631 -0.587508 0 255 255
9.5272 -5.34204 -1.73739 0 255 255
5.40766 -3.07698 -0.989653 0 255 255
5.37226 -3.07922 -0.98494 0 255 255
5.79465 -3.39426 -1.0682 0 255 255
5.35016 -3.15652 -0.988082 0 255 255
5.58643 -3.31961 -1.03364 0 255 255
5.54149 -3.31783 -1.02735 0 255 255
5.41264 -3.26383 -1.00536 0 255 255
5.35171 -3.25006 -0.995936 0 255 255
5.11103 -3.17021 -0.956664 0 255 255
4.56058 -2.95037 -0.863983 0 255 255
4.53474 -2.9539 -0.860841 0 255 255
4.4584 -2.94424 -0.849845 0 255 255
4.39978 -2.92542 -0.84042 0 255 255
4.36595 -2.92275 -0.835707 0 255 255
4.34037 -2.92541 -0.832565 0 255 255
4.3219 -2.95263 -0.832565 0 255 255
4.24751 -2.92142 -0.819998 0 255 255
4.82049 -3.36032 -0.934672 0 255 255
3.96919 -2.78545 -0.771301 0 255 255
4.13496 -2.96144 -0.809002 0 255 255
4.12564 -2.97441 -0.809002 0 255 255
4.11627 -2.98736 -0.809002 0 255 255
4.10687 -3.00027 -0.809002 0 255 255
4.08947 -3.00731 -0.807431 0 255 255
4.04031 -2.99076 -0.799577 0 255 255
4.03881 -3.00934 -0.801148 0 255 255
4.02144 -3.01609 -0.799577 0 255 255
4.01983 -3.03466 -0.801148 0 255 255
3.98615 -3.03004 -0.796435 0 255 255
3.9923 -3.05455 -0.799577 0 255 255
3.98269 -3.06708 -0.799577 0 255 255
3.97303 -3.07958 -0.799577 0 255 255
3.97112 -3.09812 -0.801148 0 255 255
3.96914 -3.11668 -0.802718 0 255 255
3.95158 -3.12301 -0.801148 0 255 255
3.94175 -3.13541 -0.801148 0 255 255
3.93188 -3.14778 -0.801148 0 255 255
3.94504 -3.1787 -0.80586 0 255 255
3.93503 -3.19108 -0.80586 0 255 255
3.94029 -3.21591 -0.809002 0 255 255
3.9378 -3.23455 -0.810573 0 255 255
3.94284 -3.25949 -0.813715 0 255 255
3.92499 -3.26554 -0.812144 0 255 255
3.92171 -3.28488 -0.813715 0 255 255
3.91893 -3.30355 -0.815286 0 255 255
3.901 -3.30946 -0.813715 0 255 255
3.9056 -3.33452 -0.816856 0 255 255
3.9026 -3.35321 -0.818427 0 255 255
3.88457 -3.35899 -0.816856 0 255 255
3.88145 -3.37766 -0.818427 0 255 255
3.87825 -3.39635 -0.819998 0 255 255
3.91943 -3.45422 -0.830994 0 255 255
3.96705 -3.51963 -0.843561 0 255 255
3.99281 -3.56497 -0.851416 0 255 255
3.99628 -3.59069 -0.854557 0 255 255
3.98498 -3.60323 -0.854557 0 255 255
3.96633 -3.60909 -0.852987 0 255 255
3.96226 -3.6282 -0.854557 0 255 255
3.95084 -3.64063 -0.854557 0 255 255
3.86291 -3.60474 -0.84042 0 255 255
3.81494 -3.58372 -0.832565 0 255 255
3.80366 -3.59569 -0.832565 0 255 255
3.86207 -3.72045 -0.852987 0 255 255
3.82909 -3.71194 -0.848274 0 255 255
3.86689 -3.77223 -0.85927 0 255 255
3.84798 -3.77744 -0.857699 0 255 255
3.83609 -3.78951 -0.857699 0 255 255
3.81016 -3.78762 -0.854557 0 255 255
3.80456 -3.80721 -0.856128 0 255 255
3.77866 -3.80513 -0.852987 0 255 255
3.6557 -3.70451 -0.827853 0 255 255
3.63235 -3.72741 -0.827853 0 255 255
3.59314 -3.71042 -0.821569 0 255 255
3.57842 -3.7656 -0.826282 0 255 255
3.5937 -3.80555 -0.832565 0 255 255
3.56079 -3.79583 -0.827853 0 255 255
3.52191 -3.77811 -0.821569 0 255 255
3.48989 -3.76742 -0.816856 0 255 255
3.47803 -3.77836 -0.816856 0 255 255
3.45282 -3.77469 -0.813715 0 255 255
3.44094 -3.78552 -0.813715 0 255 255
3.42241 -3.78899 -0.812144 0 255 255
3.41049 -3.79972 -0.812144 0 255 255
3.38539 -3.79568 -0.809002 0 255 255
3.38 -3.81368 -0.810573 0 255 255
3.36081 -3.81746 -0.809002 0 255 255
3.3423 -3.82056 -0.807431 0 255 255
3.33028 -3.83104 -0.807431 0 255 255
3.31177 -3.83401 -0.80586 0 255 255
3.29971 -3.8444 -0.80586 0 255 255
3.28121 -3.84723 -0.804289 0 255 255
3.27549 -3.86506 -0.80586 0 255 255
3.25697 -3.86777 -0.804289 0 255 255
3.23213 -3.86284 -0.801148 0 255 255
3.21299 -3.86594 -0.799577 0 255 255
3.18196 -3.85317 -0.794864 0 255 255
3.02576 -3.68755 -0.758734 0 255 255
2.92055 -3.58222 -0.735171 0 255 255
3.15187 -3.91593 -0.799577 0 255 255
3.10254 -3.87954 -0.790151 0 255 255
3.10877 -3.91246 -0.794864 0 255 255
3.09646 -3.92221 -0.794864 0 255 255
3.08413 -3.93192 -0.794864 0 255 255
3.07783 -3.94938 -0.796435 0 255 255
3.05867 -3.95175 -0.794864 0 255 255
3.05226 -3.96917 -0.796435 0 255 255
3.03378 -3.97089 -0.794864 0 255 255
3.02726 -3.98827 -0.796435 0 255 255
3.01402 -3.99829 -0.796435 0 255 255
3.01328 -4.02354 -0.799577 0 255 255
3.00063 -4.03299 -0.799577 0 255 255
2.99381 -4.05034 -0.801148 0 255 255
2.99861 -4.0836 -0.80586 0 255 255
2.99741 -4.10896 -0.809002 0 255 255
2.98448 -4.11836 -0.809002 0 255 255
2.9773 -4.13573 -0.810573 0 255 255
2.96429 -4.14506 -0.810573 0 255 255
2.98484 -4.20318 -0.819998 0 255 255
3.02855 -4.29324 -0.835707 0 255 255
3.05548 -4.35881 -0.846703 0 255 255
3.05229 -4.38513 -0.849845 0 255 255
3.04973 -4.41095 -0.852987 0 255 255
2.97187 -4.3566 -0.838849 0 255 255
2.92493 -4.31686 -0.829423 0 255 255
2.91687 -4.33422 -0.830994 0 255 255
2.98926 -4.53518 -0.863983 0 255 255
2.98582 -4.56107 -0.867124 0 255 255
2.99301 -4.60355 -0.873408 0 255 255
2.97317 -4.60463 -0.871837 0 255 255
2.95869 -4.61395 -0.871837 0 255 255
2.93357 -4.60656 -0.868695 0 255 255
2.42863 -3.97874 -0.741454 0 255 255
2.35981 -3.89345 -0.724175 0 255 255
2.37234 -3.94357 -0.732029 0 255 255
3.09209 -5.5691 -1.01322 0 255 255
3.04121 -5.51824 -1.00222 0 255 255
3.03334 -5.5451 -1.00536 0 255 255
2.72202 -5.05111 -0.91268 0 255 255
2.67353 -4.99868 -0.901684 0 255 255
2.6662 -5.02496 -0.904826 0 255 255
3.30068 -6.36494 -1.14046 0 255 255
3.30326 -6.41919 -1.14831 0 255 255
3.29206 -6.44712 -1.15145 0 255 255
3.27626 -6.46624 -1.15302 0 255 255
2.62283 -5.25829 -0.934672 0 255 255
2.56688 -5.18684 -0.920534 0 255 255
2.58012 -5.25739 -0.93153 0 255 255
2.75125 -5.7889 -1.0195 0 255 255
2.69515 -5.71712 -1.00536 0 255 255
1.66614 -3.59267 -0.629922 0 255 255
1.62596 -3.53508 -0.618926 0 255 255
1.62304 -3.55814 -0.622068 0 255 255
1.61123 -3.5635 -0.622068 0 255 255
1.59599 -3.55954 -0.620497 0 255 255
1.57677 -3.54649 -0.617355 0 255 255
1.56562 -3.55142 -0.617355 0 255 255
1.5505 -3.54727 -0.615784 0 255 255
1.54328 -3.56119 -0.617355 0 255 255
1.53146 -3.56629 -0.617355 0 255 255
1.51638 -3.56199 -0.615784 0 255 255
1.4975 -3.54854 -0.612642 0 255 255
