ply
format ascii 1.0
element vertex 1289
property float x
property float y
property float z
property uchar red
property uchar green
property uchar blue
end_header
-0.416405 -0.155273 -0.070689 0 255 255
-0.416891 -0.153964 -0.070689 0 255 255
-0.380273 -0.139085 -0.064406 0 255 255
-0.408539 -0.14805 -0.069119 0 255 255
-0.362547 -0.130025 -0.061264 0 255 255
-0.37226 -0.13219 -0.062835 0 255 255
-0.363357 -0.127744 -0.061264 0 255 255
-0.363734 -0.126666 -0.061264 0 255 255
-0.39214 -0.135178 -0.065977 0 255 255
-0.364523 -0.124378 -0.061264 0 255 255
-0.364912 -0.123232 -0.061264 0 255 255
-0.346564 -0.115824 -0.058122 0 255 255
-0.365679 -0.120937 -0.061264 0 255 255
-0.356671 -0.116716 -0.059693 0 255 255
-0.357036 -0.115595 -0.059693 0 255 255
-0.366802 -0.117485 -0.061264 0 255 255
-0.376584 -0.119315 -0.062835 0 255 255
-0.376957 -0.118131 -0.062835 0 255 255
-0.367893 -0.114023 -0.061264 0 255 255
-0.36825 -0.112866 -0.061264 0 255 255
-0.387505 -0.117438 -0.064406 0 255 255
-0.359491 -0.107716 -0.059693 0 255 255
-0.388235 -0.115001 -0.064406 0 255 255
-0.388575 -0.113848 -0.064406 0 255 255
-0.398417 -0.115374 -0.065977 0 255 255
-0.379788 -0.108687 -0.062835 0 255 255
-0.380127 -0.107494 -0.062835 0 255 255
-0.389975 -0.108956 -0.064406 0 255 255
-0.380795 -0.105103 -0.062835 0 255 255
-0.390652 -0.106504 -0.064406 0 255 255
-0.371912 -0.100141 -0.061264 0 255 255
-0.362681 -0.096434 -0.059693 0 255 255
-0.372534 -0.097802 -0.061264 0 255 255
-0.382399 -0.099109 -0.062835 0 255 255
-0.373141 -0.095459 -0.061264 0 255 255
-0.363848 -0.091932 -0.059693 0 255 255
-0.364135 -0.090789 -0.059693 0 255 255
-0.374024 -0.091938 -0.061264 0 255 255
-0.345518 -0.083781 -0.056552 0 255 255
-0.345765 -0.082756 -0.056552 0 255 255
-0.346023 -0.081669 -0.056552 0 255 255
-0.336659 -0.078343 -0.054981 0 255 255
-0.317652 -0.072869 -0.051839 0 255 255
-0.308247 -0.069693 -0.050268 0 255 255
-0.337383 -0.075167 -0.054981 0 255 255
-0.327971 -0.071989 -0.05341 0 255 255
-0.328196 -0.070958 -0.05341 0 255 255
-0.328417 -0.069927 -0.05341 0 255 255
-0.309303 -0.064842 -0.050268 0 255 255
-0.319178 -0.065866 -0.051839 0 255 255
-0.309705 -0.062898 -0.050268 0 255 255
-0.319585 -0.063859 -0.051839 0 255 255
-0.329475 -0.06476 -0.05341 0 255 255
-0.339361 -0.065658 -0.054981 0 255 255
-0.329864 -0.062746 -0.05341 0 255 255
-0.339767 -0.063524 -0.054981 0 255 255
-0.339965 -0.062457 -0.054981 0 255 255
-0.34016 -0.061388 -0.054981 0 255 255
-0.350075 -0.062043 -0.056552 0 255 255
-0.359998 -0.062635 -0.058122 0 255 255
-0.379663 -0.064829 -0.061264 0 255 255
-0.370125 -0.062004 -0.059693 0 255 255
-0.370318 -0.060841 -0.059693 0 255 255
-0.380257 -0.061248 -0.061264 0 255 255
-0.380448 -0.060053 -0.061264 0 255 255
-0.380634 -0.058857 -0.061264 0 255 255
-0.312466 -0.047312 -0.050268 0 255 255
-0.361458 -0.053569 -0.058122 0 255 255
-0.32253 -0.046765 -0.051839 0 255 255
-0.322668 -0.045807 -0.051839 0 255 255
-0.342374 -0.047508 -0.054981 0 255 255
-0.342522 -0.046432 -0.054981 0 255 255
-0.313295 -0.041469 -0.050268 0 255 255
-0.333012 -0.043014 -0.05341 0 255 255
-0.313549 -0.039499 -0.050268 0 255 255
-0.343078 -0.042125 -0.054981 0 255 255
-0.313791 -0.037528 -0.050268 0 255 255
-0.304098 -0.0354 -0.048697 0 255 255
-0.323834 -0.036667 -0.051839 0 255 255
-0.294497 -0.032409 -0.047126 0 255 255
-0.304418 -0.032533 -0.048697 0 255 255
-0.304518 -0.031576 -0.048697 0 255 255
-0.29479 -0.029632 -0.047126 0 255 255
-0.304706 -0.029716 -0.048697 0 255 255
-0.294965 -0.02783 -0.047126 0 255 255
-0.304886 -0.0278 -0.048697 0 255 255
-0.304972 -0.026843 -0.048697 0 255 255
-0.314896 -0.026719 -0.050268 0 255 255
-0.305135 -0.024926 -0.048697 0 255 255
-0.305212 -0.023967 -0.048697 0 255 255
-0.305285 -0.023008 -0.048697 0 255 255
-0.285656 -0.020626 -0.045555 0 255 255
-0.295572 -0.020409 -0.047126 0 255 255
-0.295631 -0.019532 -0.047126 0 255 255
-0.295691 -0.018603 -0.047126 0 255 255
-0.295748 -0.017674 -0.047126 0 255 255
-0.276082 -0.015629 -0.043985 0 255 255
-0.285991 -0.015289 -0.045555 0 255 255
-0.276174 -0.013894 -0.043985 0 255 255
-0.286082 -0.013491 -0.045555 0 255 255
-0.276256 -0.012158 -0.043985 0 255 255
-0.266425 -0.010887 -0.042414 0 255 255
-0.266458 -0.01005 -0.042414 0 255 255
-0.266489 -0.009213 -0.042414 0 255 255
-0.276387 -0.008686 -0.043985 0 255 255
-0.276412 -0.007866 -0.043985 0 255 255
-0.276435 -0.006997 -0.043985 0 255 255
-0.276456 -0.006129 -0.043985 0 255 255
-0.276474 -0.00526 -0.043985 0 255 255
-0.296238 -0.004705 -0.047126 0 255 255
-0.306126 -0.003901 -0.048697 0 255 255
-0.316013 -0.003034 -0.050268 0 255 255
-0.351046 0.056291 -0.056552 0 255 255
-0.37036 0.060582 -0.059693 0 255 255
-0.31172 0.051996 -0.050268 0 255 255
-0.301819 0.05132 -0.048697 0 255 255
-0.301657 0.052268 -0.048697 0 255 255
-0.320942 0.056648 -0.051839 0 255 255
-0.301322 0.054162 -0.048697 0 255 255
-0.291436 0.053331 -0.047126 0 255 255
-0.320404 0.059615 -0.051839 0 255 255
-0.339622 0.064295 -0.054981 0 255 255
-0.329721 0.063494 -0.05341 0 255 255
-0.348903 0.068326 -0.056552 0 255 255
-0.31963 0.063636 -0.051839 0 255 255
-0.309749 0.062681 -0.050268 0 255 255
-0.28053 0.057687 -0.045555 0 255 255
-0.299681 0.062607 -0.048697 0 255 255
-0.318805 0.067648 -0.051839 0 255 255
-0.337899 0.072809 -0.054981 0 255 255
-0.366626 0.080139 -0.059693 0 255 255
-0.395296 0.087707 -0.064406 0 255 255
-0.433557 0.097627 -0.070689 0 255 255
-0.413993 0.094589 -0.067548 0 255 255
-0.461798 0.107039 -0.075402 0 255 255
-0.432618 0.101709 -0.070689 0 255 255
-0.441903 0.105358 -0.07226 0 255 255
-0.479967 0.116028 -0.078544 0 255 255
-0.489213 0.1198 -0.080115 0 255 255
-0.460079 0.114199 -0.075402 0 255 255
-0.421409 0.106007 -0.069119 0 255 255
-0.430643 0.10977 -0.070689 0 255 255
-0.420734 0.108653 -0.069119 0 255 255
-0.458608 0.119972 -0.075402 0 255 255
-0.448682 0.118882 -0.073831 0 255 255
-0.457845 0.122851 -0.075402 0 255 255
-0.476518 0.129467 -0.078544 0 255 255
-0.476109 0.130963 -0.078544 0 255 255
-0.475695 0.132459 -0.078544 0 255 255
-0.475276 0.133952 -0.078544 0 255 255
-0.484374 0.138069 -0.080115 0 255 255
-0.445982 0.128642 -0.073831 0 255 255
-0.464537 0.135576 -0.076973 0 255 255
-0.454637 0.134238 -0.075402 0 255 255
-0.454213 0.135666 -0.075402 0 255 255
-0.444331 0.134236 -0.073831 0 255 255
-0.44393 0.135554 -0.073831 0 255 255
-0.434066 0.134034 -0.07226 0 255 255
-0.424216 0.132454 -0.070689 0 255 255
-0.452051 0.142705 -0.075402 0 255 255
-0.432784 0.138119 -0.07226 0 255 255
-0.432348 0.139478 -0.07226 0 255 255
-0.460075 0.15002 -0.076973 0 255 255
-0.459601 0.151465 -0.076973 0 255 255
-0.45915 0.152828 -0.076973 0 255 255
-0.468028 0.157418 -0.078544 0 255 255
-0.476882 0.162065 -0.080115 0 255 255
-0.46703 0.160356 -0.078544 0 255 255
-0.475854 0.165059 -0.080115 0 255 255
-0.475333 0.166553 -0.080115 0 255 255
-0.465498 0.16475 -0.078544 0 255 255
-0.483577 0.17286 -0.081686 0 255 255
-0.473772 0.170942 -0.080115 0 255 255
-0.491791 0.179192 -0.083257 0 255 255
-0.481957 0.177326 -0.081686 0 255 255
-0.47214 0.1754 -0.080115 0 255 255
-0.480834 0.18035 -0.081686 0 255 255
-0.498737 0.188855 -0.084827 0 255 255
-0.488916 0.186895 -0.083257 0 255 255
-0.488326 0.188429 -0.083257 0 255 255
-0.487765 0.189878 -0.083257 0 255 255
-0.50555 0.198632 -0.086398 0 255 255
-0.495743 0.196579 -0.084827 0 255 255
-0.495123 0.198135 -0.084827 0 255 255
-0.494498 0.19969 -0.084827 0 255 255
-0.503014 0.204969 -0.086398 0 255 255
-0.493234 0.202793 -0.084827 0 255 255
-0.492594 0.204341 -0.084827 0 255 255
-0.501096 0.209613 -0.086398 0 255 255
-0.509534 0.215026 -0.087969 0 255 255
-0.490683 0.208889 -0.084827 0 255 255
-0.508173 0.218223 -0.087969 0 255 255
-0.489361 0.211968 -0.084827 0 255 255
-0.497742 0.217458 -0.086398 0 255 255
-0.497057 0.219021 -0.086398 0 255 255
-0.505391 0.224592 -0.087969 0 255 255
-0.495709 0.222053 -0.086398 0 255 255
-0.504009 0.227675 -0.087969 0 255 255
-0.503292 0.229257 -0.087969 0 255 255
-0.511544 0.234959 -0.08954 0 255 255
-0.501841 0.232415 -0.087969 0 255 255
-0.510057 0.238169 -0.08954 0 255 255
-0.509306 0.23977 -0.08954 0 255 255
-0.517473 0.245603 -0.091111 0 255 255
-0.516742 0.247138 -0.091111 0 255 255
-0.515963 0.24876 -0.091111 0 255 255
-0.532943 0.259013 -0.094253 0 255 255
-0.514389 0.251997 -0.091111 0 255 255
-0.52245 0.257984 -0.092682 0 255 255
-0.521637 0.259624 -0.092682 0 255 255
-0.520819 0.261262 -0.092682 0 255 255
-0.519996 0.262897 -0.092682 0 255 255
-0.519213 0.264438 -0.092682 0 255 255
-0.51838 0.266068 -0.092682 0 255 255
-0.526313 0.272233 -0.094253 0 255 255
-0.516698 0.26932 -0.092682 0 255 255
-0.524593 0.275534 -0.094253 0 255 255
-0.532453 0.2818 -0.095824 0 255 255
-0.5229 0.278734 -0.094253 0 255 255
-0.522021 0.280375 -0.094253 0 255 255
-0.529824 0.286714 -0.095824 0 255 255
-0.511579 0.278922 -0.092682 0 255 255
-0.5107 0.280527 -0.092682 0 255 255
-0.518457 0.286913 -0.094253 0 255 255
-0.517553 0.28854 -0.094253 0 255 255
-0.516644 0.290164 -0.094253 0 255 255
-0.515781 0.291696 -0.094253 0 255 255
-0.514862 0.293315 -0.094253 0 255 255
-0.522503 0.299847 -0.095824 0 255 255
-0.513009 0.296544 -0.094253 0 255 255
-0.512075 0.298154 -0.094253 0 255 255
-0.519654 0.304758 -0.095824 0 255 255
-0.510244 0.301277 -0.094253 0 255 255
-0.517783 0.307926 -0.095824 0 255 255
-0.516813 0.309551 -0.095824 0 255 255
-0.515838 0.311173 -0.095824 0 255 255
-0.514858 0.312792 -0.095824 0 255 255
-0.522297 0.319563 -0.097394 0 255 255
-0.52129 0.321202 -0.097394 0 255 255
-0.503496 0.312424 -0.094253 0 255 255
-0.519319 0.32438 -0.097394 0 255 255
-0.518297 0.32601 -0.097394 0 255 255
-0.508927 0.322352 -0.095824 0 255 255
-0.516238 0.32926 -0.097394 0 255 255
-0.506892 0.325544 -0.095824 0 255 255
-0.514159 0.332497 -0.097394 0 255 255
-0.513171 0.334021 -0.097394 0 255 255
-0.512119 0.335632 -0.097394 0 255 255
-0.519305 0.342678 -0.098965 0 255 255
-0.526451 0.349773 -0.100536 0 255 255
-0.52535 0.351426 -0.100536 0 255 255
-0.524243 0.353074 -0.100536 0 255 255
-0.531368 0.360169 -0.102107 0 255 255
-0.530234 0.361837 -0.102107 0 255 255
-0.529095 0.363501 -0.102107 0 255 255
-0.52795 0.365161 -0.102107 0 255 255
-0.526864 0.366726 -0.102107 0 255 255
-0.533798 0.374047 -0.103678 0 255 255
-0.53262 0.375722 -0.103678 0 255 255
-0.531437 0.377394 -0.103678 0 255 255
-0.530249 0.379061 -0.103678 0 255 255
-0.529055 0.380725 -0.103678 0 255 255
-0.527856 0.382385 -0.103678 0 255 255
-0.510693 0.372404 -0.100536 0 255 255
-0.509586 0.373918 -0.100536 0 255 255
-0.516353 0.381384 -0.102107 0 255 255
-0.507227 0.377112 -0.100536 0 255 255
-0.474412 0.355035 -0.094253 0 255 255
-0.473294 0.356523 -0.094253 0 255 255
-0.464302 0.352042 -0.092682 0 255 255
-0.455343 0.347507 -0.091111 0 255 255
-0.438586 0.336904 -0.087969 0 255 255
-0.42977 0.332164 -0.086398 0 255 255
-0.413134 0.321385 -0.083257 0 255 255
-0.419899 0.32877 -0.084827 0 255 255
-0.426621 0.3362 -0.086398 0 255 255
-0.417882 0.331328 -0.084827 0 255 255
-0.424559 0.338799 -0.086398 0 255 255
-0.415792 0.333947 -0.084827 0 255 255
-0.414741 0.335252 -0.084827 0 255 255
-0.421347 0.342786 -0.086398 0 255 255
-0.420268 0.344108 -0.086398 0 255 255
-0.426806 0.351707 -0.087969 0 255 255
-0.417067 0.347981 -0.086398 0 255 255
-0.438661 0.368341 -0.091111 0 255 255
-0.445045 0.376092 -0.092682 0 255 255
-0.451384 0.383886 -0.094253 0 255 255
-0.450176 0.385303 -0.094253 0 255 255
-0.463929 0.399606 -0.097394 0 255 255
-0.455209 0.394592 -0.095824 0 255 255
-0.461409 0.402512 -0.097394 0 255 255
-0.445367 0.390851 -0.094253 0 255 255
-0.451539 0.398786 -0.095824 0 255 255
-0.465047 0.413324 -0.098965 0 255 255
-0.449025 0.401615 -0.095824 0 255 255
-0.447831 0.402946 -0.095824 0 255 255
-0.446563 0.404351 -0.095824 0 255 255
-0.423391 0.385797 -0.091111 0 255 255
-0.429456 0.393799 -0.092682 0 255 255
-0.420958 0.388449 -0.091111 0 255 255
-0.405262 0.376329 -0.087969 0 255 255
-0.396927 0.370789 -0.086398 0 255 255
-0.39576 0.372034 -0.086398 0 255 255
-0.401764 0.380062 -0.087969 0 255 255
-0.407721 0.388132 -0.08954 0 255 255
-0.4065 0.389411 -0.08954 0 255 255
-0.419494 0.404394 -0.092682 0 255 255
-0.453741 0.440013 -0.100536 0 255 255
-0.43822 0.427642 -0.097394 0 255 255
-0.436875 0.429016 -0.097394 0 255 255
-0.3857 0.462767 -0.095824 0 255 255
-0.370234 0.44993 -0.092682 0 255 255
-0.356317 0.435799 -0.08954 0 255 255
-0.336337 0.413862 -0.084827 0 255 255
-0.310217 0.384182 -0.078544 0 255 255
-0.296713 0.369697 -0.075402 0 255 255
-0.307865 0.38607 -0.078544 0 255 255
-0.363316 0.529222 -0.102107 0 255 255
-0.37278 0.546679 -0.105249 0 255 255
-0.337831 0.498787 -0.095824 0 255 255
-0.363825 0.540816 -0.103678 0 255 255
-0.340266 0.509051 -0.097394 0 255 255
-0.32774 0.493663 -0.094253 0 255 255
-0.342497 0.519424 -0.098965 0 255 255
-0.357095 0.545283 -0.103678 0 255 255
-0.35538 0.546402 -0.103678 0 255 255
-0.337587 0.522629 -0.098965 0 255 255
-0.330701 0.515317 -0.097394 0 255 255
-0.313157 0.491368 -0.092682 0 255 255
-0.30633 0.484005 -0.091111 0 255 255
-0.283787 0.451519 -0.084827 0 255 255
-0.164324 0.292822 -0.05341 0 255 255
-0.153791 0.276082 -0.050268 0 255 255
-0.162481 0.293849 -0.05341 0 255 255
-0.156805 0.2857 -0.051839 0 255 255
-0.165356 0.303537 -0.054981 0 255 255
-0.138037 0.273266 -0.048697 0 255 255
-0.141603 0.282528 -0.050268 0 255 255
-2.09607 4.60152 -0.804289 0 255 255
-2.04907 4.53609 -0.791722 0 255 255
-2.02674 4.52447 -0.788581 0 255 255
-1.98846 4.47667 -0.779155 0 255 255
-1.99906 4.53677 -0.788581 0 255 255
-1.96108 4.48873 -0.779155 0 255 255
-1.94697 4.49487 -0.779155 0 255 255
-1.93673 4.51004 -0.780726 0 255 255
-1.90708 4.47975 -0.774443 0 255 255
-1.91604 4.54032 -0.783868 0 255 255
-1.92543 4.60064 -0.793293 0 255 255
-1.89205 4.56106 -0.785439 0 255 255
-1.88522 4.58525 -0.788581 0 255 255
-1.86708 4.582 -0.78701 0 255 255
-1.84898 4.57869 -0.785439 0 255 255
-1.86027 4.64865 -0.796435 0 255 255
-1.82462 4.59907 -0.78701 0 255 255
-1.80655 4.59559 -0.785439 0 255 255
-1.80725 4.63774 -0.791722 0 255 255
-1.78555 4.62497 -0.788581 0 255 255
-1.72868 4.51987 -0.76973 0 255 255
-1.72147 4.54374 -0.772872 0 255 255
-1.70719 4.54913 -0.772872 0 255 255
-1.69633 4.56373 -0.774443 0 255 255
-1.75105 4.75409 -0.80586 0 255 255
-1.74287 4.77812 -0.809002 0 255 255
-1.68088 4.65353 -0.78701 0 255 255
-1.6596 4.64019 -0.783868 0 255 255
-1.63842 4.62676 -0.780726 0 255 255
-1.61734 4.61325 -0.777584 0 255 255
-1.64901 4.74864 -0.799577 0 255 255
-1.64371 4.78181 -0.804289 0 255 255
-1.64458 4.8337 -0.812144 0 255 255
-1.642 4.87628 -0.818427 0 255 255
-1.65564 4.96545 -0.832565 0 255 255
-1.64931 4.99876 -0.837278 0 255 255
-2.52243 7.7265 -1.29283 0 255 255
-2.44652 7.74052 -1.29126 0 255 255
-2.42354 7.74774 -1.29126 0 255 255
-2.39919 7.75532 -1.29126 0 255 255
-2.3777 7.77226 -1.29283 0 255 255
-2.35041 7.77024 -1.29126 0 255 255
-2.33018 7.78664 -1.29283 0 255 255
-2.30571 7.79392 -1.29283 0 255 255
-2.27844 7.79165 -1.29126 0 255 255
-2.26217 7.82723 -1.29597 0 255 255
-2.23486 7.8248 -1.2944 0 255 255
-2.20759 7.82228 -1.29283 0 255 255
-2.18565 7.83869 -1.2944 0 255 255
-2.15839 7.836 -1.29283 0 255 255
-2.13635 7.85227 -1.2944 0 255 255
-2.11424 7.86848 -1.29597 0 255 255
-2.08835 7.86517 -1.2944 0 255 255
-2.06614 7.88125 -1.29597 0 255 255
-2.04137 7.8877 -1.29597 0 255 255
-2.01657 7.89407 -1.29597 0 255 255
-1.99314 7.90002 -1.29597 0 255 255
-1.96832 7.90624 -1.29597 0 255 255
-1.94347 7.91239 -1.29597 0 255 255
-1.9186 7.91845 -1.29597 0 255 255
-1.89739 7.93372 -1.29754 0 255 255
-1.87473 7.94925 -1.29912 0 255 255
-1.84975 7.9551 -1.29912 0 255 255
-1.82695 7.9705 -1.30069 0 255 255
-1.8019 7.9762 -1.30069 0 255 255
-1.77469 7.97218 -1.29912 0 255 255
-1.75314 7.98706 -1.30069 0 255 255
-1.72804 7.99253 -1.30069 0 255 255
-1.70499 8.00757 -1.30226 0 255 255
-1.67779 8.00323 -1.30069 0 255 255
-1.65463 8.01813 -1.30226 0 255 255
-1.62944 8.02329 -1.30226 0 255 255
-1.60563 8.02809 -1.30226 0 255 255
-1.58231 8.04278 -1.30383 0 255 255
-1.55515 8.03802 -1.30226 0 255 255
-1.53174 8.05257 -1.30383 0 255 255
-1.50644 8.05734 -1.30383 0 255 255
-1.48111 8.06203 -1.30383 0 255 255
-1.45719 8.06639 -1.30383 0 255 255
-1.43184 8.07093 -1.30383 0 255 255
-1.40958 8.08487 -1.3054 0 255 255
-1.38418 8.08926 -1.3054 0 255 255
-1.35875 8.09357 -1.3054 0 255 255
-1.33332 8.09779 -1.3054 0 255 255
-1.30787 8.10194 -1.3054 0 255 255
-1.28396 8.11577 -1.30697 0 255 255
-1.25836 8.10978 -1.3054 0 255 255
-1.23733 8.14299 -1.31011 0 255 255
-1.21029 8.13706 -1.30854 0 255 255
-1.18329 8.13105 -1.30697 0 255 255
-1.16056 8.14431 -1.30854 0 255 255
-1.13497 8.14791 -1.30854 0 255 255
-1.11069 8.16122 -1.31011 0 255 255
-1.08895 8.19404 -1.31483 0 255 255
0.83268 2.24021 -0.380152 0 255 255
0.839355 2.21661 -0.377011 0 255 255
0.842788 2.20473 -0.37544 0 255 255
0.835111 2.16537 -0.369156 0 255 255
0.84191 2.16273 -0.369156 0 255 255
3.08782 7.859 -1.3431 0 255 255
3.0761 7.75746 -1.32739 0 255 255
3.11513 7.78443 -1.33368 0 255 255
3.14326 7.78377 -1.33525 0 255 255
3.1677 7.77385 -1.33525 0 255 255
3.19211 7.76386 -1.33525 0 255 255
3.21513 7.75436 -1.33525 0 255 255
3.23948 7.74422 -1.33525 0 255 255
3.26379 7.734 -1.33525 0 255 255
3.29194 7.7328 -1.33682 0 255 255
3.31487 7.723 -1.33682 0 255 255
3.33912 7.71254 -1.33682 0 255 255
3.35938 7.69297 -1.33525 0 255 255
3.38352 7.68237 -1.33525 0 255 255
3.40764 7.67171 -1.33525 0 255 255
3.43577 7.66997 -1.33682 0 255 255
3.45851 7.65975 -1.33682 0 255 255
3.48256 7.64885 -1.33682 0 255 255
3.50245 7.62889 -1.33525 0 255 255
3.53469 7.63577 -1.33839 0 255 255
3.55449 7.61568 -1.33682 0 255 255
3.5784 7.60448 -1.33682 0 255 255
3.60094 7.59383 -1.33682 0 255 255
3.62478 7.58248 -1.33682 0 255 255
3.64859 7.57105 -1.33682 0 255 255
3.67236 7.55955 -1.33682 0 255 255
3.70042 7.55685 -1.33839 0 255 255
3.71978 7.53633 -1.33682 0 255 255
3.74212 7.52526 -1.33682 0 255 255
3.76575 7.51347 -1.33682 0 255 255
3.78933 7.5016 -1.33682 0 255 255
3.81288 7.48966 -1.33682 0 255 255
3.83508 7.47831 -1.33682 0 255 255
3.85856 7.46623 -1.33682 0 255 255
3.882 7.45407 -1.33682 0 255 255
3.90998 7.45058 -1.33839 0 255 255
3.92875 7.42953 -1.33682 0 255 255
3.95208 7.41715 -1.33682 0 255 255
3.96939 7.39669 -1.33525 0 255 255
3.99731 7.39287 -1.33682 0 255 255
4.01579 7.3716 -1.33525 0 255 255
4.03893 7.35895 -1.33525 0 255 255
4.06681 7.35487 -1.33682 0 255 255
4.08989 7.34206 -1.33682 0 255 255
4.11166 7.32989 -1.33682 0 255 255
4.12981 7.30834 -1.33525 0 255 255
4.15275 7.29533 -1.33525 0 255 255
4.18056 7.29081 -1.33682 0 255 255
4.1985 7.26909 -1.33525 0 255 255
4.22132 7.25587 -1.33525 0 255 255
4.24283 7.24331 -1.33525 0 255 255
4.27058 7.23845 -1.33682 0 255 255
4.28826 7.21651 -1.33525 0 255 255
4.32105 7.21995 -1.33839 0 255 255
4.33736 7.19864 -1.33682 0 255 255
4.35483 7.17653 -1.33525 0 255 255
4.37735 7.16282 -1.33525 0 255 255
4.40501 7.15744 -1.33682 0 255 255
4.42227 7.13517 -1.33525 0 255 255
4.44466 7.12124 -1.33525 0 255 255
4.47103 7.11638 -1.33682 0 255 255
4.48808 7.09396 -1.33525 0 255 255
4.51565 7.08815 -1.33682 0 255 255
4.5379 7.07393 -1.33682 0 255 255
4.55887 7.06043 -1.33682 0 255 255
4.58103 7.04608 -1.33682 0 255 255
4.60977 7.03911 -1.33839 0 255 255
4.63187 7.02459 -1.33839 0 255 255
4.64723 7.00259 -1.33682 0 255 255
4.6692 6.98796 -1.33682 0 255 255
4.68441 6.96588 -1.33525 0 255 255
4.70627 6.95113 -1.33525 0 255 255
4.72808 6.93631 -1.33525 0 255 255
4.74985 6.92142 -1.33525 0 255 255
4.76595 6.89834 -1.33368 0 255 255
4.79324 6.89144 -1.33525 0 255 255
4.80921 6.86826 -1.33368 0 255 255
4.83076 6.85311 -1.33368 0 255 255
4.84536 6.8307 -1.3321 0 255 255
4.86679 6.81544 -1.3321 0 255 255
4.88818 6.80012 -1.3321 0 255 255
4.90952 6.78473 -1.3321 0 255 255
4.93544 6.77811 -1.33368 0 255 255
4.95087 6.75461 -1.3321 0 255 255
4.9662 6.73108 -1.33053 0 255 255
4.99322 6.72337 -1.3321 0 255 255
5.01431 6.70765 -1.3321 0 255 255
5.03536 6.69186 -1.3321 0 255 255
5.04327 6.66115 -1.32896 0 255 255
5.07016 6.65313 -1.33053 0 255 255
5.08502 6.62933 -1.32896 0 255 255
5.10582 6.61332 -1.32896 0 255 255
5.12658 6.59725 -1.32896 0 255 255
5.14728 6.58111 -1.32896 0 255 255
5.16678 6.56581 -1.32896 0 255 255
5.19351 6.55728 -1.33053 0 255 255
5.21409 6.54094 -1.33053 0 255 255
5.23461 6.52452 -1.33053 0 255 255
5.24888 6.50036 -1.32896 0 255 255
5.2755 6.49151 -1.33053 0 255 255
5.28849 6.46818 -1.32896 0 255 255
5.30878 6.45153 -1.32896 0 255 255
5.33533 6.44243 -1.33053 0 255 255
5.34921 6.41805 -1.32896 0 255 255
5.36935 6.40121 -1.32896 0 255 255
5.38944 6.38431 -1.32896 0 255 255
5.40196 6.36077 -1.32739 0 255 255
5.42192 6.34376 -1.32739 0 255 255
5.44826 6.33419 -1.32896 0 255 255
5.46167 6.30957 -1.32739 0 255 255
5.48037 6.29334 -1.32739 0 255 255
5.4936 6.26866 -1.32582 0 255 255
5.5198 6.25878 -1.32739 0 255 255
5.53943 6.24141 -1.32739 0 255 255
5.55244 6.21661 -1.32582 0 255 255
5.57194 6.19913 -1.32582 0 255 255
5.59031 6.18258 -1.32582 0 255 255
5.60306 6.15768 -1.32425 0 255 255
5.62237 6.14005 -1.32425 0 255 255
5.62156 6.10056 -1.31954 0 255 255
5.61384 6.05391 -1.31325 0 255 255
5.62609 6.02902 -1.31168 0 255 255
5.63148 5.99692 -1.30854 0 255 255
5.63673 5.96484 -1.3054 0 255 255
5.64079 5.93377 -1.30226 0 255 255
5.63893 5.89462 -1.29754 0 255 255
5.65742 5.87687 -1.29754 0 255 255
5.66211 5.84488 -1.2944 0 255 255
5.66666 5.81292 -1.29126 0 255 255
5.67106 5.78099 -1.28812 0 255 255
5.66738 5.74305 -1.28341 0 255 255
5.68539 5.72522 -1.28341 0 255 255
5.6824 5.68637 -1.27869 0 255 255
5.68623 5.65456 -1.27555 0 255 255
5.6829 5.61585 -1.27084 0 255 255
5.69347 5.59105 -1.26927 0 255 255
5.6959 5.56033 -1.26613 0 255 255
5.70625 5.53553 -1.26456 0 255 255
5.7165 5.51073 -1.26299 0 255 255
5.71239 5.47225 -1.25827 0 255 255
5.7224 5.44746 -1.2567 0 255 255
5.71796 5.4091 -1.25199 0 255 255
5.72679 5.38534 -1.25042 0 255 255
5.72925 5.35384 -1.24728 0 255 255
5.7388 5.32909 -1.24571 0 255 255
5.741 5.29764 -1.24256 0 255 255
5.74306 5.26623 -1.23942 0 255 255
5.75227 5.24151 -1.23785 0 255 255
5.75407 5.21016 -1.23471 0 255 255
5.75573 5.17884 -1.23157 0 255 255
5.76371 5.15516 -1.23 0 255 255
5.76511 5.12391 -1.22686 0 255 255
5.76638 5.0927 -1.22371 0 255 255
5.7675 5.06152 -1.22057 0 255 255
5.78337 5.04338 -1.22057 0 255 255
5.7768 5.00579 -1.21586 0 255 255
5.78414 4.98218 -1.21429 0 255 255
5.79977 4.96398 -1.21429 0 255 255
5.80781 4.93934 -1.21272 0 255 255
5.80821 4.90832 -1.20958 0 255 255
5.8236 4.89005 -1.20958 0 255 255
5.83135 4.8654 -1.208 0 255 255
2.85849 2.35468 -0.589079 0 255 255
2.8349 2.32116 -0.582796 0 255 255
2.83452 2.30601 -0.581225 0 255 255
2.84174 2.2971 -0.581225 0 255 255
2.23711 1.64212 -0.441417 0 255 255
2.15449 1.57108 -0.424137 0 255 255
2.2234 1.61065 -0.436704 0 255 255
2.22015 1.59828 -0.435133 0 255 255
2.22516 1.5913 -0.435133 0 255 255
2.22237 1.57819 -0.433562 0 255 255
2.24346 1.58259 -0.436704 0 255 255
2.24815 1.57592 -0.436704 0 255 255
2.24498 1.56321 -0.435133 0 255 255
2.24988 1.55615 -0.435133 0 255 255
2.2629 1.55466 -0.436704 0 255 255
2.25934 1.54238 -0.435133 0 255 255
2.26418 1.53527 -0.435133 0 255 255
2.27718 1.53367 -0.436704 0 255 255
2.2902 1.532 -0.438275 0 255 255
2.28677 1.51933 -0.436704 0 255 255
2.29153 1.51214 -0.436704 0 255 255
2.29601 1.50533 -0.436704 0 255 255
2.30901 1.5035 -0.438275 0 255 255
2.30542 1.49088 -0.436704 0 255 255
2.31841 1.48896 -0.438275 0 255 255
2.32307 1.48167 -0.438275 0 255 255
2.32772 1.47437 -0.438275 0 255 255
2.33208 1.46745 -0.438275 0 255 255
2.31993 1.44965 -0.435133 0 255 255
2.34965 1.45798 -0.439846 0 255 255
2.32899 1.43505 -0.435133 0 255 255
2.35034 1.43803 -0.438275 0 255 255
2.37172 1.4409 -0.441417 0 255 255
2.36778 1.42834 -0.439846 0 255 255
2.37226 1.42089 -0.439846 0 255 255
2.33403 1.3886 -0.431991 0 255 255
2.38089 1.40637 -0.439846 0 255 255
2.3853 1.39889 -0.439846 0 255 255
2.38968 1.39139 -0.439846 0 255 255
2.40259 1.38881 -0.441417 0 255 255
2.40694 1.38126 -0.441417 0 255 255
2.41961 1.379 -0.442988 0 255 255
2.42393 1.37139 -0.442988 0 255 255
2.41962 1.35894 -0.441417 0 255 255
2.42387 1.35133 -0.441417 0 255 255
2.42811 1.34371 -0.441417 0 255 255
2.43232 1.33607 -0.441417 0 255 255
2.4365 1.32842 -0.441417 0 255 255
2.44935 1.32546 -0.442988 0 255 255
2.44457 1.31351 -0.441417 0 255 255
2.46611 1.31512 -0.444558 0 255 255
2.4615 1.30275 -0.442988 0 255 255
2.48307 1.3042 -0.446129 0 255 255
2.4784 1.29182 -0.444558 0 255 255
2.48245 1.28403 -0.444558 0 255 255
2.48624 1.27666 -0.444558 0 255 255
2.48144 1.26436 -0.442988 0 255 255
2.4854 1.25656 -0.442988 0 255 255
2.47168 1.23989 -0.439846 0 255 255
2.50209 1.24531 -0.444558 0 255 255
2.50599 1.23745 -0.444558 0 255 255
2.5276 1.23826 -0.4477 0 255 255
2.5226 1.226 -0.446129 0 255 255
2.53512 1.2228 -0.4477 0 255 255
2.54786 1.21909 -0.449271 0 255 255
2.54275 1.20685 -0.4477 0 255 255
2.54653 1.19885 -0.4477 0 255 255
2.55923 1.19502 -0.449271 0 255 255
2.56297 1.18698 -0.449271 0 255 255
2.56649 1.17937 -0.449271 0 255 255
2.58815 1.17949 -0.452413 0 255 255
2.59184 1.17135 -0.452413 0 255 255
2.57749 1.15513 -0.449271 0 255 255
2.59915 1.15504 -0.452413 0 255 255
2.59373 1.14289 -0.450842 0 255 255
2.60616 1.13915 -0.452413 0 255 255
2.5916 1.1231 -0.449271 0 255 255
2.61327 1.12275 -0.452413 0 255 255
2.61678 1.11453 -0.452413 0 255 255
2.63846 1.11399 -0.455555 0 255 255
2.63284 1.10188 -0.453984 0 255 255
2.56331 1.06333 -0.441417 0 255 255
2.63971 1.08532 -0.453984 0 255 255
2.65207 1.08121 -0.455555 0 255 255
2.65545 1.07287 -0.455555 0 255 255
2.66798 1.06819 -0.457125 0 255 255
2.67132 1.05981 -0.457125 0 255 255
2.67463 1.05141 -0.457125 0 255 255
2.69633 1.05017 -0.460267 0 255 255
2.6904 1.03814 -0.458696 0 255 255
2.69365 1.02968 -0.458696 0 255 255
2.70593 1.02518 -0.460267 0 255 255
2.69989 1.01321 -0.458696 0 255 255
2.70306 1.00472 -0.458696 0 255 255
2.73401 1.00646 -0.463409 0 255 255
2.72788 0.994484 -0.461838 0 255 255
2.71241 0.979202 -0.458696 0 255 255
2.75267 0.983972 -0.46498 0 255 255
2.72782 0.965436 -0.460267 0 255 255
2.7588 0.966658 -0.46498 0 255 255
2.74316 0.951514 -0.461838 0 255 255
2.77399 0.952996 -0.466551 0 255 255
2.75827 0.937917 -0.463409 0 255 255
2.73312 0.919799 -0.458696 0 255 255
2.78285 0.92681 -0.466551 0 255 255
2.79513 0.921154 -0.468122 0 255 255
2.78862 0.909306 -0.466551 0 255 255
2.7913 0.901029 -0.466551 0 255 255
2.80353 0.89526 -0.468122 0 255 255
5.41489 1.71043 -0.903255 0 255 255
5.43909 1.6993 -0.906396 0 255 255
5.45384 1.68512 -0.907967 0 255 255
5.45911 1.66797 -0.907967 0 255 255
5.45487 1.64796 -0.906396 0 255 255
5.45055 1.62799 -0.904826 0 255 255
5.45564 1.61086 -0.904826 0 255 255
5.46068 1.59371 -0.904826 0 255 255
5.46538 1.5775 -0.904826 0 255 255
5.47031 1.56032 -0.904826 0 255 255
5.46568 1.54045 -0.903255 0 255 255
6.49568 1.74294 -1.06977 0 255 255
6.51067 1.72506 -1.07134 0 255 255
6.51576 1.70573 -1.07134 0 255 255
6.52108 1.68525 -1.07134 0 255 255
6.49764 1.65744 -1.06663 0 255 255
6.00481 1.51165 -0.98494 0 255 255
6.0287 1.49753 -0.988082 0 255 255
5.84515 1.3742 -0.955094 0 255 255
5.83982 1.3536 -0.953523 0 255 255
5.83418 1.33406 -0.951952 0 255 255
5.82871 1.31356 -0.950381 0 255 255
5.82316 1.2931 -0.94881 0 255 255
5.79826 1.26847 -0.944097 0 255 255
5.77325 1.244 -0.939385 0 255 255
5.77713 1.22586 -0.939385 0 255 255
5.77129 1.20569 -0.937814 0 255 255
5.78472 1.18954 -0.939385 0 255 255
5.76886 1.16845 -0.936243 0 255 255
5.78219 1.15225 -0.937814 0 255 255
5.78578 1.13407 -0.937814 0 255 255
5.75053 1.10842 -0.93153 0 255 255
5.68606 1.07748 -0.920534 0 255 255
5.74767 1.07046 -0.92996 0 255 255
5.78986 1.0595 -0.936243 0 255 255
5.79316 1.04131 -0.936243 0 255 255
5.7964 1.02311 -0.936243 0 255 255
5.80932 1.00658 -0.937814 0 255 255
5.82219 0.989978 -0.939385 0 255 255
5.82527 0.97168 -0.939385 0 255 255
5.84762 0.957585 -0.942527 0 255 255
5.86035 0.940776 -0.944097 0 255 255
5.88279 0.925428 -0.947239 0 255 255
5.89543 0.908448 -0.94881 0 255 255
5.91763 0.8939 -0.951952 0 255 255
5.91064 0.873861 -0.950381 0 255 255
5.91335 0.855289 -0.950381 0 255 255
5.93557 0.839472 -0.953523 0 255 255
5.95774 0.823527 -0.956664 0 255 255
5.99945 0.81009 -0.962948 0 255 255
6.04113 0.796403 -0.969232 0 255 255
6.10237 0.784981 -0.978657 0 255 255
6.1538 0.77195 -0.986511 0 255 255
5.91514 0.350386 -0.942527 0 255 255
5.91615 0.332837 -0.942527 0 255 255
5.92703 0.314772 -0.944097 0 255 255
5.92799 0.296151 -0.944097 0 255 255
5.94862 0.278448 -0.947239 0 255 255
5.9396 0.259329 -0.945668 0 255 255
5.96012 0.241469 -0.94881 0 255 255
5.97072 0.22311 -0.950381 0 255 255
5.95165 0.203677 -0.947239 0 255 255
5.96213 0.185284 -0.94881 0 255 255
5.98243 0.167105 -0.951952 0 255 255
5.98292 0.148311 -0.951952 0 255 255
5.98336 0.129512 -0.951952 0 255 255
5.98374 0.110716 -0.951952 0 255 255
5.98406 0.091915 -0.951952 0 255 255
5.9843 0.074161 -0.951952 0 255 255
5.98451 0.055361 -0.951952 0 255 255
5.98465 0.036558 -0.951952 0 255 255
5.98474 0.017758 -0.951952 0 255 255
5.98476 -0.001045 -0.951952 0 255 255
5.99461 -0.019879 -0.953523 0 255 255
5.98464 -0.037603 -0.951952 0 255 255
5.97462 -0.056311 -0.950381 0 255 255
5.98429 -0.075205 -0.951952 0 255 255
5.99388 -0.095206 -0.953523 0 255 255
5.98368 -0.113848 -0.951952 0 255 255
5.97342 -0.132427 -0.950381 0 255 255
5.98287 -0.150398 -0.951952 0 255 255
5.9725 -0.168913 -0.950381 0 255 255
5.97194 -0.187676 -0.950381 0 255 255
5.97132 -0.206436 -0.950381 0 255 255
5.96077 -0.224822 -0.94881 0 255 255
5.9403 -0.242741 -0.945668 0 255 255
5.93956 -0.260365 -0.945668 0 255 255
5.95844 -0.279951 -0.94881 0 255 255
5.96739 -0.299163 -0.950381 0 255 255
5.25637 -0.280075 -0.837278 0 255 255
5.29491 -0.298812 -0.843561 0 255 255
5.34323 -0.318382 -0.851416 0 255 255
5.33235 -0.334549 -0.849845 0 255 255
5.27214 -0.347403 -0.84042 0 255 255
5.23162 -0.361243 -0.834136 0 255 255
5.22061 -0.376965 -0.832565 0 255 255
5.20962 -0.391713 -0.830994 0 255 255
5.19851 -0.407306 -0.829423 0 255 255
5.18737 -0.422833 -0.827853 0 255 255
5.17617 -0.438295 -0.826282 0 255 255
5.15509 -0.452826 -0.82314 0 255 255
5.14381 -0.468123 -0.821569 0 255 255
5.14231 -0.484281 -0.821569 0 255 255
5.13094 -0.499477 -0.819998 0 255 255
5.11952 -0.514606 -0.818427 0 255 255
5.09823 -0.528649 -0.815286 0 255 255
5.09664 -0.543774 -0.815286 0 255 255
5.0949 -0.559783 -0.815286 0 255 255
5.08331 -0.574677 -0.813715 0 255 255
5.07167 -0.589503 -0.812144 0 255 255
5.06979 -0.605433 -0.812144 0 255 255
5.03846 -0.617752 -0.807431 0 255 255
5.04629 -0.63481 -0.809002 0 255 255
5.02468 -0.648134 -0.80586 0 255 255
5.01283 -0.662622 -0.804289 0 255 255
5.02051 -0.679692 -0.80586 0 255 255
4.99878 -0.692749 -0.802718 0 255 255
4.97703 -0.705677 -0.799577 0 255 255
4.97491 -0.720441 -0.799577 0 255 255
4.96273 -0.735487 -0.798006 0 255 255
4.96039 -0.751074 -0.798006 0 255 255
4.95801 -0.766654 -0.798006 0 255 255
4.95571 -0.781361 -0.798006 0 255 255
4.94348 -0.795357 -0.796435 0 255 255
4.92147 -0.807685 -0.793293 0 255 255
4.92865 -0.824772 -0.794864 0 255 255
4.91629 -0.838591 -0.793293 0 255 255
4.91363 -0.854032 -0.793293 0 255 255
4.91093 -0.869465 -0.793293 0 255 255
4.90817 -0.884888 -0.793293 0 255 255
4.89566 -0.898521 -0.791722 0 255 255
4.89281 -0.913897 -0.791722 0 255 255
4.88037 -0.926568 -0.790151 0 255 255
4.86774 -0.940023 -0.788581 0 255 255
4.87445 -0.957213 -0.790151 0 255 255
4.91016 -0.980256 -0.796435 0 255 255
4.93609 -1.00157 -0.801148 0 255 255
5.11963 -1.08914 -0.832565 0 255 255
5.15479 -1.11356 -0.838849 0 255 255
5.18021 -1.1361 -0.843561 0 255 255
5.1959 -1.15666 -0.846703 0 255 255
5.22114 -1.17951 -0.851416 0 255 255
5.26553 -1.20694 -0.85927 0 255 255
5.26172 -1.22347 -0.85927 0 255 255
5.35958 -1.28178 -0.87655 0 255 255
5.28857 -1.28139 -0.865554 0 255 255
5.32288 -1.30742 -0.871837 0 255 255
5.46249 -1.35993 -0.8954 0 255 255
5.51565 -1.39158 -0.904826 0 255 255
5.54952 -1.41868 -0.911109 0 255 255
5.58328 -1.44601 -0.917392 0 255 255
5.62647 -1.47608 -0.925247 0 255 255
5.66953 -1.50643 -0.933101 0 255 255
5.73153 -1.54219 -0.944097 0 255 255
5.78383 -1.57577 -0.953523 0 255 255
5.90698 -1.64926 -0.975515 0 255 255
5.92078 -1.67318 -0.978657 0 255 255
6.01014 -1.71998 -0.994366 0 255 255
5.66371 -1.52607 -0.722213 0 255 255
5.73549 -1.56475 -0.73199 0 255 255
5.77866 -1.59496 -0.7381 0 255 255
5.88833 -1.64516 -0.752764 0 255 255
5.99774 -1.69606 -0.767428 0 255 255
5.98284 -1.71216 -0.766206 0 255 255
5.9679 -1.72819 -0.764984 0 255 255
6.00054 -1.75809 -0.769872 0 255 255
6.04256 -1.79104 -0.775982 0 255 255
6.08444 -1.82426 -0.782092 0 255 255
8.40567 -2.54903 -1.08149 0 255 255
9.3185 -2.8899 -1.20124 0 255 255
9.30937 -2.91916 -1.20124 0 255 255
9.31908 -2.9544 -1.20369 0 255 255
3.93183 -1.2601 -0.50836 0 255 255
3.9373 -1.27551 -0.509582 0 255 255
3.92384 -1.28478 -0.50836 0 255 255
3.92001 -1.29642 -0.50836 0 255 255
3.91592 -1.30873 -0.50836 0 255 255
3.91179 -1.32102 -0.50836 0 255 255
3.90762 -1.33331 -0.50836 0 255 255
3.89403 -1.34234 -0.507138 0 255 255
3.88979 -1.35457 -0.507138 0 255 255
3.88551 -1.36678 -0.507138 0 255 255
3.8812 -1.37898 -0.507138 0 255 255
3.87685 -1.39117 -0.507138 0 255 255
3.87246 -1.40334 -0.507138 0 255 255
3.86803 -1.4155 -0.507138 0 255 255
3.86357 -1.42764 -0.507138 0 255 255
3.84976 -1.43631 -0.505916 0 255 255
3.84523 -1.44839 -0.505916 0 255 255
3.84066 -1.46046 -0.505916 0 255 255
3.83606 -1.47252 -0.505916 0 255 255
3.83141 -1.48457 -0.505916 0 255 255
3.82673 -1.4966 -0.505916 0 255 255
3.82201 -1.50861 -0.505916 0 255 255
3.81725 -1.52061 -0.505916 0 255 255
3.80351 -1.52823 -0.504694 0 255 255
3.79869 -1.54017 -0.504694 0 255 255
3.79383 -1.5521 -0.504694 0 255 255
3.78894 -1.56401 -0.504694 0 255 255
3.78401 -1.5759 -0.504694 0 255 255
3.77904 -1.58779 -0.504694 0 255 255
3.76489 -1.59578 -0.503472 0 255 255
3.76899 -1.6115 -0.504694 0 255 255
3.75479 -1.6194 -0.503472 0 255 255
3.74969 -1.63119 -0.503472 0 255 255
3.75363 -1.64695 -0.504694 0 255 255
3.73936 -1.65472 -0.503472 0 255 255
3.73415 -1.66646 -0.503472 0 255 255
3.72889 -1.67818 -0.503472 0 255 255
3.7236 -1.68988 -0.503472 0 255 255
3.71827 -1.70157 -0.503472 0 255 255
3.71291 -1.71325 -0.503472 0 255 255
3.70751 -1.7249 -0.503472 0 255 255
3.70207 -1.73654 -0.503472 0 255 255
3.6966 -1.74816 -0.503472 0 255 255
3.70036 -1.76339 -0.504694 0 255 255
3.6948 -1.77501 -0.504694 0 255 255
3.6892 -1.78661 -0.504694 0 255 255
3.67465 -1.79384 -0.503472 0 255 255
3.669 -1.80537 -0.503472 0 255 255
3.66331 -1.81689 -0.503472 0 255 255
3.65758 -1.82839 -0.503472 0 255 255
3.65182 -1.83987 -0.503472 0 255 255
3.66372 -1.86032 -0.505916 0 255 255
3.64019 -1.86278 -0.503472 0 255 255
3.63432 -1.8742 -0.503472 0 255 255
3.62841 -1.88561 -0.503472 0 255 255
3.62247 -1.897 -0.503472 0 255 255
3.61649 -1.90837 -0.503472 0 255 255
3.61048 -1.91973 -0.503472 0 255 255
3.60443 -1.93106 -0.503472 0 255 255
3.59835 -1.94237 -0.503472 0 255 255
3.59223 -1.95367 -0.503472 0 255 255
3.59478 -1.96971 -0.504694 0 255 255
3.58857 -1.981 -0.504694 0 255 255
9.31678 -5.21979 -1.31489 0 255 255
9.52507 -5.37586 -1.34667 0 255 255
5.65575 -3.28512 -0.805311 0 255 255
5.60257 -3.27782 -0.799201 0 255 255
5.42824 -3.22177 -0.777204 0 255 255
5.39253 -3.22353 -0.773538 0 255 255
5.31435 -3.1995 -0.763762 0 255 255
5.27881 -3.20074 -0.760096 0 255 255
5.0557 -3.10907 -0.730768 0 255 255
5.09653 -3.15629 -0.7381 0 255 255
5.10343 -3.18279 -0.740544 0 255 255
5.09341 -3.19881 -0.740544 0 255 255
5.10011 -3.2254 -0.742988 0 255 255
5.08995 -3.24141 -0.742988 0 255 255
5.10481 -3.27346 -0.746654 0 255 255
5.11118 -3.30025 -0.749098 0 255 255
4.49335 -2.92136 -0.659891 0 255 255
4.32637 -2.83218 -0.636672 0 255 255
4.40912 -2.90507 -0.650114 0 255 255
4.42478 -2.93537 -0.65378 0 255 255
4.39903 -2.93823 -0.651336 0 255 255
4.34036 -2.9188 -0.644004 0 255 255
4.31473 -2.92129 -0.64156 0 255 255
4.40395 -3.00192 -0.656224 0 255 255
5.35672 -3.70088 -0.801645 0 255 255
5.30433 -3.68935 -0.795535 0 255 255
4.86182 -3.40428 -0.730768 0 255 255
3.94253 -2.77909 -0.593901 0 255 255
4.09221 -2.96227 -0.622008 0 255 255
4.08288 -2.97511 -0.622008 0 255 255
3.99349 -2.92922 -0.609788 0 255 255
4.0162 -2.96533 -0.614676 0 255 255
3.9989 -2.97201 -0.613454 0 255 255
3.9816 -2.97862 -0.612232 0 255 255
3.96429 -2.98514 -0.61101 0 255 255
3.93116 -2.97959 -0.607344 0 255 255
3.94546 -3.00999 -0.61101 0 255 255
3.93598 -3.02237 -0.61101 0 255 255
3.91861 -3.02865 -0.609788 0 255 255
3.91691 -3.04704 -0.61101 0 255 255
3.89951 -3.05321 -0.609788 0 255 255
3.8821 -3.0593 -0.608566 0 255 255
3.87247 -3.07148 -0.608566 0 255 255
3.83953 -3.06506 -0.6049 0 255 255
3.84536 -3.08954 -0.607344 0 255 255
3.78933 -3.06416 -0.600012 0 255 255
3.81817 -3.10737 -0.606122 0 255 255
3.80071 -3.11307 -0.6049 0 255 255
3.7838 -3.11802 -0.603678 0 255 255
3.72604 -3.10993 -0.597567 0 255 255
3.74665 -3.14716 -0.602456 0 255 255
3.714 -3.13969 -0.59879 0 255 255
3.70412 -3.15134 -0.59879 0 255 255
3.68666 -3.15651 -0.597567 0 255 255
3.69929 -3.18751 -0.601234 0 255 255
3.6812 -3.19325 -0.600012 0 255 255
3.67115 -3.2048 -0.600012 0 255 255
3.65417 -3.20913 -0.59879 0 255 255
3.62919 -3.20745 -0.596345 0 255 255
3.6191 -3.21884 -0.596345 0 255 255
3.59418 -3.21695 -0.593901 0 255 255
3.57668 -3.22159 -0.592679 0 255 255
3.56654 -3.23281 -0.592679 0 255 255
3.55637 -3.24399 -0.592679 0 255 255
3.53153 -3.24173 -0.590235 0 255 255
3.52133 -3.25281 -0.590235 0 255 255
3.51532 -3.28843 -0.592679 0 255 255
3.49775 -3.29265 -0.591457 0 255 255
3.50179 -3.31728 -0.593901 0 255 255
3.49135 -3.32826 -0.593901 0 255 255
3.48088 -3.33921 -0.593901 0 255 255
3.46323 -3.34324 -0.592679 0 255 255
3.42087 -3.34412 -0.589013 0 255 255
3.4245 -3.36877 -0.591457 0 255 255
3.39623 -3.38321 -0.590235 0 255 255
3.40661 -3.41495 -0.593901 0 255 255
3.39587 -3.42563 -0.593901 0 255 255
3.39206 -3.44336 -0.595123 0 255 255
3.38122 -3.45399 -0.595123 0 255 255
3.33876 -3.45376 -0.591457 0 255 255
3.34852 -3.48571 -0.595123 0 255 255
3.3444 -3.50339 -0.596345 0 255 255
3.33338 -3.51388 -0.596345 0 255 255
3.30871 -3.50989 -0.593901 0 255 255
3.29767 -3.52027 -0.593901 0 255 255
3.28659 -3.53061 -0.593901 0 255 255
3.27548 -3.54092 -0.593901 0 255 255
3.27778 -3.5658 -0.596345 0 255 255
3.25531 -3.58633 -0.596345 0 255 255
3.25067 -3.60391 -0.597567 0 255 255
3.24596 -3.62149 -0.59879 0 255 255
3.23457 -3.63167 -0.59879 0 255 255
3.23629 -3.65668 -0.601234 0 255 255
3.22479 -3.66683 -0.601234 0 255 255
3.20169 -3.68702 -0.601234 0 255 255
3.16554 -3.69199 -0.59879 0 255 255
3.1668 -3.71703 -0.601234 0 255 255
3.16152 -3.73453 -0.602456 0 255 255
3.14338 -3.73685 -0.601234 0 255 255
3.13799 -3.75433 -0.602456 0 255 255
3.13252 -3.7718 -0.603678 0 255 255
3.13329 -3.79693 -0.606122 0 255 255
2.94011 -3.60879 -0.573127 0 255 255
2.91627 -3.60258 -0.570683 0 255 255
3.09155 -3.84374 -0.607344 0 255 255
3.0175 -3.7759 -0.595123 0 255 255
3.06734 -3.86309 -0.607344 0 255 255
3.08661 -3.91113 -0.613454 0 255 255
3.08043 -3.92862 -0.614676 0 255 255
3.04892 -3.94058 -0.613454 0 255 255
3.05467 -3.97374 -0.61712 0 255 255
3.04217 -3.98332 -0.61712 0 255 255
3.02964 -3.99286 -0.61712 0 255 255
2.99188 -4.02123 -0.61712 0 255 255
3.03823 -4.11043 -0.62934 0 255 255
3.01942 -4.11195 -0.628118 0 255 255
3.00064 -4.1134 -0.626896 0 255 255
2.98188 -4.11477 -0.625674 0 255 255
2.98634 -4.14828 -0.62934 0 255 255
2.97906 -4.16572 -0.630562 0 255 255
3.72629 -5.27844 -0.795535 0 255 255
3.70969 -5.29012 -0.795535 0 255 255
3.69305 -5.30175 -0.795535 0 255 255
3.67638 -5.31333 -0.795535 0 255 255
3.65967 -5.32485 -0.795535 0 255 255
3.64292 -5.33632 -0.795535 0 255 255
3.62057 -5.33953 -0.794313 0 255 255
3.60932 -5.35911 -0.795535 0 255 255
3.58695 -5.36217 -0.794313 0 255 255
3.57558 -5.38168 -0.795535 0 255 255
3.56318 -5.40179 -0.796757 0 255 255
3.519 -5.37145 -0.790647 0 255 255
2.87421 -4.41746 -0.648892 0 255 255
2.89264 -4.47648 -0.656224 0 255 255
2.87857 -4.48555 -0.656224 0 255 255
3.45011 -5.45122 -0.794313 0 255 255
3.42769 -5.45363 -0.793091 0 255 255
3.4158 -5.47279 -0.794313 0 255 255
3.38813 -5.46662 -0.791869 0 255 255
3.37614 -5.48569 -0.793091 0 255 255
2.35817 -3.88615 -0.559685 0 255 255
2.3562 -3.91054 -0.562129 0 255 255
2.72694 -4.59086 -0.657447 0 255 255
2.773 -4.70199 -0.672111 0 255 255
3.21572 -5.56979 -0.791869 0 255 255
3.19327 -5.57125 -0.790647 0 255 255
3.17575 -5.58125 -0.790647 0 255 255
3.1582 -5.5912 -0.790647 0 255 255
2.69257 -4.83958 -0.681887 0 255 255
2.72053 -4.92621 -0.692885 0 255 255
2.70504 -4.93473 -0.692885 0 255 255
3.04655 -5.64154 -0.789425 0 255 255
3.01006 -5.61609 -0.784536 0 255 255
2.99706 -5.63428 -0.785758 0 255 255
2.97935 -5.64367 -0.785758 0 255 255
2.97081 -5.67058 -0.788203 0 255 255
2.94841 -5.67108 -0.786981 0 255 255
2.93057 -5.68032 -0.786981 0 255 255
2.91271 -5.6895 -0.786981 0 255 255
2.89033 -5.68977 -0.785758 0 255 255
2.87244 -5.69882 -0.785758 0 255 255
2.85453 -5.70782 -0.785758 0 255 255
2.82776 -5.69898 -0.783314 0 255 255
2.80545 -5.69893 -0.782092 0 255 255
2.79189 -5.71663 -0.783314 0 255 255
2.77825 -5.7343 -0.784536 0 255 255
2.75592 -5.73406 -0.783314 0 255 255
2.73789 -5.74269 -0.783314 0 255 255
2.71559 -5.74229 -0.782092 0 255 255
2.70597 -5.76876 -0.784536 0 255 255
2.67946 -5.75924 -0.782092 0 255 255
2.54076 -5.50628 -0.746654 0 255 255
2.53584 -5.54131 -0.75032 0 255 255
2.50611 -5.52214 -0.746654 0 255 255
2.45396 -5.54551 -0.746654 0 255 255
2.4764 -5.64408 -0.758874 0 255 255
1.5919 -3.75575 -0.50225 0 255 255
1.55703 -3.70584 -0.494918 0 255 255
1.53012 -3.67406 -0.49003 0 255 255
1.50721 -3.65133 -0.486364 0 255 255
1.48821 -3.63767 -0.48392 0 255 255
1.47678 -3.64233 -0.48392 0 255 255
1.45792 -3.62853 -0.481476 0 255 255
1.44652 -3.63309 -0.481476 0 255 255
1.4351 -3.63762 -0.481476 0 255 255
1.42005 -3.63287 -0.480254 0 255 255
1.40863 -3.63731 -0.480254 0 255 255
1.39719 -3.64172 -0.480254 0 255 255
1.38222 -3.63681 -0.479032 0 255 255
1.36729 -3.63185 -0.47781 0 255 255
1.35588 -3.63612 -0.47781 0 255 255
1.34445 -3.64037 -0.47781 0 255 255
1.333 -3.64457 -0.47781 0 255 255
1.31817 -3.63941 -0.476588 0 255 255
1.30609 -3.64376 -0.476588 0 255 255
1.288 -3.62914 -0.474144 0 255 255
1.28317 -3.6519 -0.476588 0 255 255
1.26517 -3.63716 -0.474144 0 255 255
1.25051 -3.63173 -0.472922 0 255 255
1.23589 -3.62625 -0.4717 0 255 255
1.22766 -3.63952 -0.472922 0 255 255
1.21622 -3.64336 -0.472922 0 255 255
1.20477 -3.64716 -0.472922 0 255 255
1.19331 -3.65093 -0.472922 0 255 255
1.17878 -3.64521 -0.4717 0 255 255
1.16796 -3.64869 -0.4717 0 255 255
1.15884 -3.66201 -0.472922 0 255 255
1.14437 -3.65616 -0.4717 0 255 255
1.13581 -3.66922 -0.472922 0 255 255
1.12492 -3.67257 -0.472922 0 255 255
1.10986 -3.66678 -0.4717 0 255 255
1.09834 -3.67025 -0.4717 0 255 255
1.08962 -3.6832 -0.472922 0 255 255
1.07247 -3.66756 -0.470477 0 255 255
1.0637 -3.68044 -0.4717 0 255 255
1.05213 -3.68376 -0.4717 0 255 255
1.04325 -3.6966 -0.472922 0 255 255
1.03163 -3.69986 -0.472922 0 255 255
1.02 -3.70309 -0.472922 0 255 255
1.00576 -3.6967 -0.4717 0 255 255
0.999288 -3.71901 -0.474144 0 255 255
0.985054 -3.71253 -0.472922 0 255 255
0.975901 -3.72521 -0.474144 0 255 255
0.961708 -3.71865 -0.472922 0 255 255
0.952476 -3.73127 -0.474144 0 255 255
0.943174 -3.74387 -0.475366 0 255 255
0.933802 -3.75644 -0.476588 0 255 255
0.926724 -3.77864 -0.479032 0 255 255
0.919517 -3.80083 -0.481476 0 255 255
0.907571 -3.80369 -0.481476 0 255 255
0.89789 -3.81619 -0.482698 0 255 255
0.888139 -3.82866 -0.48392 0 255 255
0.882744 -3.86046 -0.487586 0 255 255
0.870612 -3.86321 -0.487586 0 255 255
0.864926 -3.89499 -0.491252 0 255 255
0.856928 -3.91708 -0.493696 0 255 255
0.848798 -3.93916 -0.49614 0 255 255
0.842599 -3.97093 -0.499806 0 255 255
0.838239 -4.01242 -0.504694 0 255 255
0.843621 -4.10253 -0.515692 0 255 255
0.848446 -4.19271 -0.52669 0 255 255
0.85465 -4.2927 -0.538911 0 255 255
0.860233 -4.39276 -0.551131 0 255 255
1.22769 -6.48497 -0.812643 0 255 255
1.22547 -6.58637 -0.824863 0 255 255
1.21191 -6.62924 -0.829751 0 255 255
1.19283 -6.64279 -0.830973 0 255 255
1.17024 -6.63673 -0.829751 0 255 255
1.14938 -6.64037 -0.829751 0 255 255
1.13017 -6.65374 -0.830973 0 255 255
1.10926 -6.65725 -0.830973 0 255 255
1.08835 -6.66071 -0.830973 0 255 255
1.06741 -6.66409 -0.830973 0 255 255
1.04955 -6.68702 -0.833417 0 255 255
1.00899 -6.7033 -0.834639 0 255 255
0.990821 -6.72607 -0.837083 0 255 255
0.97818 -6.78809 -0.844415 0 255 255
0.959618 -6.81079 -0.846859 0 255 255
0.972371 -7.22982 -0.898184 0 255 255
0.286233 -2.29475 -0.284731 0 255 255
0.276628 -2.27594 -0.282286 0 255 255
0.949898 -9.27109 -1.14748 0 255 255
0.918806 -9.25427 -1.14503 0 255 255
0.892295 -9.26684 -1.14625 0 255 255
0.859723 -9.24998 -1.14381 0 255 255
0.782736 -8.71883 -1.07782 0 255 255
0.515551 -5.9526 -0.735656 0 255 255
0.220363 -2.64081 -0.326279 0 255 255
0.209683 -2.61181 -0.322613 0 255 255
0.272451 -3.53275 -0.436261 0 255 255
0.26794 -3.62267 -0.447259 0 255 255
0.168632 -2.61478 -0.322613 0 255 255
0.159201 -2.59549 -0.320169 0 255 255
0.510792 -8.77875 -1.08271 0 255 255
0.483756 -8.79022 -1.08393 0 255 255
0.459737 -8.86108 -1.09248 0 255 255
0.452188 -9.27884 -1.14381 0 255 255
0.282111 -7.1802 -0.884742 0 255 255
0.250232 -6.92317 -0.85297 0 255 255
0.227171 -6.88424 -0.848082 0 255 255
0.205838 -6.89484 -0.849303 0 255 255
0.027825 -1.04176 -0.128312 0 255 255
0.023851 -1.01207 -0.124646 0 255 255
0.019861 -0.972452 -0.119758 0 255 255
0.017148 -0.992357 -0.122202 0 255 255
0.01347 -0.95271 -0.117314 0 255 255
0.010695 -0.972596 -0.119758 0 255 255
0.007561 -0.9627 -0.118536 0 255 255
0.004369 -0.96272 -0.118536 0 255 255
0.001344 -0.962729 -0.118536 0 255 255
-0.00168 -0.962729 -0.118536 0 255 255
-0.004537 -0.962719 -0.118536 0 255 255
-0.007729 -0.962699 -0.118536 0 255 255
-0.010643 -0.952746 -0.117314 0 255 255
-0.013778 -0.962631 -0.118536 0 255 255
-0.016291 -0.942739 -0.116092 0 255 255
-0.019658 -0.962529 -0.118536 0 255 255
-0.022682 -0.962463 -0.118536 0 255 255
-0.025705 -0.962387 -0.118536 0 255 255
-0.028432 -0.952381 -0.117314 0 255 255
-0.031752 -0.962206 -0.118536 0 255 255
-0.034774 -0.962102 -0.118536 0 255 255
-0.037964 -0.961981 -0.118536 0 255 255
-0.040986 -0.961857 -0.118536 0 255 255
-0.044176 -0.961716 -0.118536 0 255 255
-0.047029 -0.961581 -0.118536 0 255 255
-0.050566 -0.97134 -0.119758 0 255 255
-0.05307 -0.961266 -0.118536 0 255 255
-0.056668 -0.971003 -0.119758 0 255 255
-0.059718 -0.97082 -0.119758 0 255 255
-0.062768 -0.970628 -0.119758 0 255 255
-0.065817 -0.970426 -0.119758 0 255 255
-0.068865 -0.970214 -0.119758 0 255 255
-0.07338 -0.989789 -0.122202 0 255 255
-0.074195 -0.959867 -0.118536 0 255 255
-0.078802 -0.979415 -0.12098 0 255 255
-0.080224 -0.959382 -0.118536 0 255 255
-0.084954 -0.978901 -0.12098 0 255 255
-0.086251 -0.958859 -0.118536 0 255 255
-0.091103 -0.978348 -0.12098 0 255 255
-0.092274 -0.958298 -0.118536 0 255 255
-0.096266 -0.96788 -0.119758 0 255 255
-0.098293 -0.957699 -0.118536 0 255 255
-0.102345 -0.967256 -0.119758 0 255 255
-0.104475 -0.957044 -0.118536 0 255 255
-0.109698 -0.976438 -0.12098 0 255 255
-0.110487 -0.956369 -0.118536 0 255 255
-0.115831 -0.975729 -0.12098 0 255 255
-0.116493 -0.955656 -0.118536 0 255 255
-0.121959 -0.974982 -0.12098 0 255 255
-0.123758 -0.96475 -0.119758 0 255 255
-0.128082 -0.974196 -0.12098 0 255 255
-0.132467 -0.983626 -0.122202 0 255 255
-0.132845 -0.96354 -0.119758 0 255 255
-0.137258 -0.972946 -0.12098 0 255 255
-0.138729 -0.962711 -0.119758 0 255 255
-0.143369 -0.972064 -0.12098 0 255 255
-0.146422 -0.971609 -0.12098 0 255 255
-0.149473 -0.971144 -0.12098 0 255 255
-0.152354 -0.970697 -0.12098 0 255 255
-0.156973 -0.980013 -0.122202 0 255 255
-0.15845 -0.96972 -0.12098 0 255 255
-0.159865 -0.959428 -0.119758 0 255 255
-0.16454 -0.968705 -0.12098 0 255 255
-0.166057 -0.958375 -0.119758 0 255 255
-0.170792 -0.967623 -0.12098 0 255 255
