ply
format ascii 1.0
element vertex 1292
property float x
property float y
property float z
property uchar red
property uchar green
property uchar blue
end_header
4.99134 2.11151 0.470826 0 255 255
5.08063 2.13049 0.478615 0 255 255
5.00451 2.0801 0.470826 0 255 255
5.2413 2.15924 0.492463 0 255 255
5.21117 2.1277 0.489001 0 255 255
5.17165 2.09263 0.484674 0 255 255
5.30765 2.12829 0.496791 0 255 255
5.11989 2.03435 0.478615 0 255 255
5.1726 2.0365 0.482943 0 255 255
5.14185 2.00576 0.479481 0 255 255
5.13883 1.986 0.478615 0 255 255
5.12644 1.96273 0.476885 0 255 255
5.07669 1.92541 0.471692 0 255 255
5.11069 1.91997 0.474288 0 255 255
5.10736 1.90042 0.473423 0 255 255
4.99179 1.83959 0.462171 0 255 255
4.97882 1.81707 0.46044 0 255 255
4.93766 1.78448 0.456113 0 255 255
4.84944 1.7354 0.447458 0 255 255
5.39952 1.91313 0.497656 0 255 255
4.87905 1.71149 0.449189 0 255 255
4.90323 1.70269 0.45092 0 255 255
5.00277 1.71966 0.459575 0 255 255
4.8761 1.65901 0.447458 0 255 255
4.98515 1.67866 0.456978 0 255 255
5.01875 1.67244 0.459575 0 255 255
4.92937 1.62546 0.45092 0 255 255
4.88709 1.59452 0.446592 0 255 255
4.92052 1.58834 0.449189 0 255 255
4.92549 1.57287 0.449189 0 255 255
4.9304 1.55739 0.449189 0 255 255
4.98282 1.55675 0.453516 0 255 255
5.05431 1.56167 0.459575 0 255 255
4.96392 1.51667 0.45092 0 255 255
5.09263 1.53853 0.462171 0 255 255
5.33609 1.5938 0.483808 0 255 255
5.27419 1.55728 0.47775 0 255 255
5.25992 1.53512 0.476019 0 255 255
5.26947 1.50204 0.476019 0 255 255
5.26457 1.48278 0.475154 0 255 255
5.2788 1.4689 0.476019 0 255 255
5.27378 1.44967 0.475154 0 255 255
5.28792 1.43571 0.476019 0 255 255
5.35977 1.43715 0.482077 0 255 255
5.37389 1.42285 0.482943 0 255 255
5.39761 1.411 0.484674 0 255 255
5.39237 1.39155 0.483808 0 255 255
5.41602 1.37952 0.485539 0 255 255
5.42033 1.3625 0.485539 0 255 255
8.91527 2.21126 0.797981 0 255 255
8.91249 2.18087 0.797116 0 255 255
8.9193 2.15286 0.797116 0 255 255
8.92602 2.12483 0.797116 0 255 255
8.92295 2.0945 0.79625 0 255 255
8.92949 2.06646 0.79625 0 255 255
8.92622 2.03618 0.795385 0 255 255
8.93257 2.00813 0.795385 0 255 255
8.92911 1.9779 0.794519 0 255 255
8.93528 1.94984 0.794519 0 255 255
8.94136 1.92176 0.794519 0 255 255
8.93794 1.89003 0.793654 0 255 255
8.94351 1.86351 0.793654 0 255 255
8.94932 1.8354 0.793654 0 255 255
8.95504 1.80728 0.793654 0 255 255
8.9509 1.7772 0.792788 0 255 255
8.95644 1.74907 0.792788 0 255 255
8.95211 1.71905 0.791923 0 255 255
8.95746 1.69091 0.791923 0 255 255
8.96273 1.66276 0.791923 0 255 255
8.9682 1.63303 0.791923 0 255 255
8.97328 1.60485 0.791923 0 255 255
8.96847 1.57493 0.791057 0 255 255
8.97337 1.54674 0.791057 0 255 255
8.97819 1.51854 0.791057 0 255 255
8.98291 1.49033 0.791057 0 255 255
8.97772 1.46051 0.790192 0 255 255
8.98226 1.4323 0.790192 0 255 255
8.98672 1.40407 0.790192 0 255 255
9.00093 1.37733 0.791057 0 255 255
8.99536 1.34757 0.790192 0 255 255
8.99955 1.31931 0.790192 0 255 255
9.00343 1.2926 0.790192 0 255 255
8.99758 1.26293 0.789326 0 255 255
9.01115 1.23758 0.790192 0 255 255
9.01542 1.20612 0.790192 0 255 255
9.00928 1.1765 0.789326 0 255 255
9.02282 1.14945 0.790192 0 255 255
9.0165 1.11987 0.789326 0 255 255
9.02986 1.09273 0.790192 0 255 255
9.02336 1.06319 0.789326 0 255 255
9.03655 1.03598 0.790192 0 255 255
9.02986 1.00648 0.789326 0 255 255
9.03298 0.978105 0.789326 0 255 255
9.04591 0.950761 0.790192 0 255 255
9.03894 0.921329 0.789326 0 255 255
9.05171 0.893909 0.790192 0 255 255
9.05447 0.865465 0.790192 0 255 255
9.04723 0.836101 0.789326 0 255 255
9.05973 0.808557 0.790192 0 255 255
9.0523 0.779242 0.789326 0 255 255
9.06463 0.751621 0.790192 0 255 255
9.06695 0.723137 0.790192 0 255 255
9.06918 0.694651 0.790192 0 255 255
9.07131 0.666153 0.790192 0 255 255
9.07336 0.637657 0.790192 0 255 255
9.07532 0.609147 0.790192 0 255 255
9.07719 0.58063 0.790192 0 255 255
9.07897 0.552112 0.790192 0 255 255
9.0906 0.524162 0.791057 0 255 255
9.09221 0.495603 0.791057 0 255 255
9.09372 0.467034 0.791057 0 255 255
9.09514 0.43846 0.791057 0 255 255
9.09647 0.409886 0.791057 0 255 255
9.09772 0.381309 0.791057 0 255 255
9.10882 0.353109 0.791923 0 255 255
9.09993 0.324138 0.791057 0 255 255
9.11086 0.295869 0.791923 0 255 255
9.10184 0.265366 0.791057 0 255 255
9.11258 0.237031 0.791923 0 255 255
9.11328 0.2084 0.791923 0 255 255
9.11389 0.17977 0.791923 0 255 255
9.11439 0.152725 0.791923 0 255 255
9.12478 0.124228 0.792788 0 255 255
9.12514 0.09397 0.792788 0 255 255
9.12539 0.0653 0.792788 0 255 255
9.14548 0.036713 0.794519 0 255 255
9.13559 0.00797 0.793654 0 255 255
9.14553 -0.020751 0.794519 0 255 255
9.14542 -0.049482 0.794519 0 255 255
9.14523 -0.076617 0.794519 0 255 255
9.15491 -0.105462 0.795385 0 255 255
9.16452 -0.132769 0.79625 0 255 255
9.16397 -0.166357 0.79625 0 255 255
9.16343 -0.193547 0.79625 0 255 255
9.17274 -0.222575 0.797116 0 255 255
9.172 -0.251391 0.797116 0 255 255
9.17116 -0.280204 0.797116 0 255 255
9.18019 -0.30935 0.797981 0 255 255
9.17918 -0.338189 0.797981 0 255 255
9.17807 -0.367025 0.797981 0 255 255
9.18682 -0.396286 0.798846 0 255 255
9.18553 -0.425145 0.798846 0 255 255
9.18415 -0.454 0.798846 0 255 255
9.18268 -0.482851 0.798846 0 255 255
9.20101 -0.512806 0.800578 0 255 255
9.19936 -0.541709 0.800578 0 255 255
9.19761 -0.570607 0.800578 0 255 255
9.20561 -0.601754 0.801443 0 255 255
9.20367 -0.630671 0.801443 0 255 255
9.21158 -0.660294 0.802308 0 255 255
9.20946 -0.68923 0.802308 0 255 255
9.21718 -0.718934 0.803174 0 255 255
9.20495 -0.747081 0.802308 0 255 255
9.21248 -0.776832 0.803174 0 255 255
9.21 -0.80577 0.803174 0 255 255
9.21734 -0.8356 0.804039 0 255 255
9.22459 -0.865483 0.804905 0 255 255
9.23174 -0.895421 0.80577 0 255 255
9.22888 -0.924419 0.80577 0 255 255
9.23584 -0.954432 0.806636 0 255 255
9.2328 -0.983442 0.806636 0 255 255
9.23957 -1.01353 0.807501 0 255 255
9.24624 -1.04367 0.808367 0 255 255
9.25281 -1.07386 0.809232 0 255 255
9.24939 -1.10292 0.809232 0 255 255
9.24588 -1.13198 0.809232 0 255 255
9.25216 -1.16226 0.810098 0 255 255
9.24846 -1.19132 0.810098 0 255 255
9.26443 -1.22298 0.811829 0 255 255
9.27041 -1.25341 0.812694 0 255 255
9.25656 -1.28116 0.811829 0 255 255
9.27222 -1.31303 0.81356 0 255 255
9.26805 -1.34215 0.81356 0 255 255
9.26355 -1.37288 0.81356 0 255 255
9.27889 -1.40496 0.815291 0 255 255
9.27443 -1.4341 0.815291 0 255 255
9.27972 -1.46478 0.816156 0 255 255
9.28491 -1.49551 0.817022 0 255 255
9.28999 -1.52629 0.817887 0 255 255
9.29498 -1.55711 0.818753 0 255 255
9.29986 -1.58798 0.819618 0 255 255
9.29483 -1.61719 0.819618 0 255 255
9.2897 -1.64638 0.819618 0 255 255
9.30409 -1.6791 0.821349 0 255 255
9.30857 -1.71012 0.822215 0 255 255
9.31294 -1.74119 0.82308 0 255 255
9.30743 -1.77044 0.82308 0 255 255
9.32138 -1.80345 0.824811 0 255 255
9.32544 -1.83465 0.825677 0 255 255
9.31963 -1.86394 0.825677 0 255 255
9.33326 -1.89718 0.827408 0 255 255
9.32692 -1.92812 0.827408 0 255 255
9.33056 -1.95946 0.828273 0 255 255
9.33445 -1.98921 0.829139 0 255 255
9.33789 -2.02063 0.830004 0 255 255
9.34087 -2.05372 0.83087 0 255 255
9.35382 -2.0874 0.832601 0 255 255
9.34722 -2.11677 0.832601 0 255 255
9.35994 -2.15059 0.834332 0 255 255
9.35314 -2.17999 0.834332 0 255 255
9.36563 -2.21394 0.836063 0 255 255
9.36832 -2.24568 0.836928 0 255 255
9.36122 -2.2751 0.836928 0 255 255
9.37337 -2.30926 0.838659 0 255 255
9.37573 -2.34111 0.839525 0 255 255
9.37799 -2.373 0.84039 0 255 255
9.38014 -2.40492 0.841255 0 255 255
9.38218 -2.43688 0.842121 0 255 255
9.38411 -2.46888 0.842986 0 255 255
9.37631 -2.49835 0.842986 0 255 255
9.38765 -2.53298 0.844718 0 255 255
9.39887 -2.56771 0.846448 0 255 255
9.39076 -2.59723 0.846448 0 255 255
9.40128 -2.63373 0.848179 0 255 255
9.40254 -2.66597 0.849045 0 255 255
2.2025 -0.631971 0.199063 0 255 255
2.15266 -0.624999 0.194735 0 255 255
2.2176 -0.651413 0.200793 0 255 255
2.21554 -0.658377 0.200793 0 255 255
2.20392 -0.662466 0.199928 0 255 255
2.21136 -0.672284 0.200793 0 255 255
2.19971 -0.676301 0.199928 0 255 255
2.19758 -0.683208 0.199928 0 255 255
2.19542 -0.690108 0.199928 0 255 255
2.19324 -0.697002 0.199928 0 255 255
2.19092 -0.704271 0.199928 0 255 255
2.1887 -0.711151 0.199928 0 255 255
2.18633 -0.718405 0.199928 0 255 255
2.19364 -0.728027 0.200793 0 255 255
2.17245 -0.728579 0.199063 0 255 255
2.17959 -0.738598 0.199928 0 255 255
2.17726 -0.745441 0.199928 0 255 255
2.18432 -0.755534 0.200793 0 255 255
2.17253 -0.759107 0.199928 0 255 255
2.17013 -0.765928 0.199928 0 255 255
2.16772 -0.772742 0.199928 0 255 255
2.17465 -0.782923 0.200793 0 255 255
2.17218 -0.789751 0.200793 0 255 255
2.16969 -0.796571 0.200793 0 255 255
2.14331 -0.810315 0.199063 0 255 255
2.14075 -0.817045 0.199063 0 255 255
2.14747 -0.827348 0.199928 0 255 255
2.14486 -0.83409 0.199928 0 255 255
2.14223 -0.840824 0.199928 0 255 255
2.13031 -0.843881 0.199063 0 255 255
2.1369 -0.854268 0.199928 0 255 255
2.12497 -0.85725 0.199063 0 255 255
2.13149 -0.867677 0.199928 0 255 255
2.12876 -0.874369 0.199928 0 255 255
2.1168 -0.877239 0.199063 0 255 255
2.10469 -0.880409 0.198197 0 255 255
2.12944 -0.898637 0.200793 0 255 255
2.14494 -0.913127 0.202524 0 255 255
2.13291 -0.91593 0.201659 0 255 255
2.13002 -0.922626 0.201659 0 255 255
2.12711 -0.929313 0.201659 0 255 255
2.12418 -0.935991 0.201659 0 255 255
2.12123 -0.942659 0.201659 0 255 255
2.11826 -0.949319 0.201659 0 255 255
2.12435 -0.960072 0.202524 0 255 255
2.12132 -0.966741 0.202524 0 255 255
2.1181 -0.97377 0.202524 0 255 255
2.12407 -0.984609 0.20339 0 255 255
2.11194 -0.987059 0.202524 0 255 255
2.10883 -0.993689 0.202524 0 255 255
2.0967 -0.996035 0.201659 0 255 255
2.09618 -1.02011 0.202524 0 255 255
2.08402 -1.0223 0.201659 0 255 255
2.0808 -1.02884 0.201659 0 255 255
2.07755 -1.03538 0.201659 0 255 255
2.07429 -1.0419 0.201659 0 255 255
2.0799 -1.05291 0.202524 0 255 255
2.08527 -1.06433 0.20339 0 255 255
2.07305 -1.06632 0.202524 0 255 255
2.06969 -1.07283 0.202524 0 255 255
2.06631 -1.07932 0.202524 0 255 255
2.07173 -1.09045 0.20339 0 255 255
2.05069 -1.08762 0.201659 0 255 255
2.07362 -1.10814 0.204255 0 255 255
2.0789 -1.11937 0.205121 0 255 255
2.07537 -1.1259 0.205121 0 255 255
2.07183 -1.13241 0.205121 0 255 255
2.05953 -1.13411 0.204255 0 255 255
2.06467 -1.14541 0.205121 0 255 255
2.05237 -1.14703 0.204255 0 255 255
2.05723 -1.15872 0.205121 0 255 255
2.05358 -1.16517 0.205121 0 255 255
2.04991 -1.17162 0.205121 0 255 255
2.05485 -1.18303 0.205986 0 255 255
2.05113 -1.18948 0.205986 0 255 255
2.03878 -1.19089 0.205121 0 255 255
2.02644 -1.19223 0.204255 0 255 255
2.03219 -1.22155 0.205986 0 255 255
2.0113 -1.2176 0.204255 0 255 255
2.01575 -1.22946 0.205121 0 255 255
2.02037 -1.241 0.205986 0 255 255
2.01646 -1.24734 0.205986 0 255 255
2.01253 -1.25367 0.205986 0 255 255
2.01702 -1.26528 0.206852 0 255 255
2.00462 -1.26629 0.205986 0 255 255
2.00063 -1.27258 0.205986 0 255 255
2.0134 -1.2896 0.207717 0 255 255
1.98422 -1.27972 0.205121 0 255 255
2.01361 -1.30765 0.208583 0 255 255
2.01783 -1.31943 0.209448 0 255 255
2.022 -1.33124 0.210314 0 255 255
2.01781 -1.33758 0.210314 0 255 255
2.01336 -1.34427 0.210314 0 255 255
2.00913 -1.35058 0.210314 0 255 255
1.99662 -1.35131 0.209448 0 255 255
2.0006 -1.36318 0.210314 0 255 255
2.00452 -1.3751 0.211179 0 255 255
2.00019 -1.38139 0.211179 0 255 255
1.99584 -1.38766 0.211179 0 255 255
1.99147 -1.39393 0.211179 0 255 255
1.98708 -1.40018 0.211179 0 255 255
1.97355 -1.41919 0.211179 0 255 255
1.96908 -1.42538 0.211179 0 255 255
1.97265 -1.43743 0.212045 0 255 255
1.96812 -1.44362 0.212045 0 255 255
1.96358 -1.44979 0.212045 0 255 255
1.95102 -1.45001 0.211179 0 255 255
1.95443 -1.4621 0.212045 0 255 255
1.95779 -1.47423 0.21291 0 255 255
1.95315 -1.48037 0.21291 0 255 255
1.95615 -1.49288 0.213776 0 255 255
1.92774 -1.48081 0.211179 0 255 255
1.95461 -1.51124 0.214641 0 255 255
1.95771 -1.52349 0.215507 0 255 255
1.96076 -1.53577 0.216372 0 255 255
1.9481 -1.53576 0.215507 0 255 255
1.94327 -1.54187 0.215507 0 255 255
1.93063 -1.54175 0.214641 0 255 255
9.85679 -8.02755 1.10436 0 255 255
9.90858 -8.12163 1.11302 0 255 255
9.92144 -8.18442 1.11735 0 255 255
10.9724 -9.2265 1.24544 0 255 255
10.9433 -9.26092 1.24544 0 255 255
10.8838 -9.26942 1.24198 0 255 255
10.8168 -9.27115 1.23765 0 255 255
7.5061 -6.47452 0.861162 0 255 255
7.36535 -6.39358 0.847314 0 255 255
7.42025 -6.48223 0.855969 0 255 255
7.4062 -6.51338 0.856834 0 255 255
7.36332 -6.5168 0.854238 0 255 255
7.32793 -6.52665 0.852507 0 255 255
7.28513 -6.52969 0.84991 0 255 255
7.24239 -6.53253 0.847314 0 255 255
7.1997 -6.53516 0.844718 0 255 255
7.16442 -6.54431 0.842986 0 255 255
7.12183 -6.54656 0.84039 0 255 255
7.07814 -6.54984 0.837793 0 255 255
7.04295 -6.55847 0.836063 0 255 255
7.0005 -6.56012 0.833466 0 255 255
6.95811 -6.56158 0.83087 0 255 255
6.91578 -6.56283 0.828273 0 255 255
6.88072 -6.57077 0.826542 0 255 255
6.84568 -6.57855 0.824811 0 255 255
6.80349 -6.57924 0.822215 0 255 255
6.76851 -6.58669 0.820484 0 255 255
6.72528 -6.58818 0.817887 0 255 255
6.68327 -6.5883 0.815291 0 255 255
6.64839 -6.59523 0.81356 0 255 255
6.61354 -6.60201 0.811829 0 255 255
6.57871 -6.60863 0.810098 0 255 255
6.53689 -6.60802 0.807501 0 255 255
6.50213 -6.61431 0.80577 0 255 255
6.46044 -6.61332 0.803174 0 255 255
6.45351 -6.64788 0.804905 0 255 255
6.46026 -6.69681 0.808367 0 255 255
6.46676 -6.74583 0.811829 0 255 255
4.99472 -5.24497 0.629211 0 255 255
5.00561 -5.28958 0.632673 0 255 255
4.98214 -5.29803 0.631807 0 255 255
6.45888 -6.99942 0.827408 0 255 255
6.49746 -7.08576 0.835197 0 255 255
6.49529 -7.12823 0.837793 0 255 255
6.51173 -7.19405 0.842986 0 255 255
5.11 -5.68121 0.66383 0 255 255
5.09213 -5.69723 0.66383 0 255 255
5.06759 -5.70576 0.662965 0 255 255
5.01008 -5.67683 0.657772 0 255 255
4.99123 -5.69341 0.657772 0 255 255
4.97332 -5.70906 0.657772 0 255 255
4.98796 -5.76232 0.662099 0 255 255
4.96334 -5.77041 0.661234 0 255 255
4.95813 -5.80112 0.662965 0 255 255
4.96568 -5.84704 0.666427 0 255 255
4.94728 -5.86262 0.666427 0 255 255
4.94804 -5.90103 0.669023 0 255 255
4.93586 -5.9242 0.669889 0 255 255
3.94921 -4.80101 0.540065 0 255 255
3.97824 -4.86739 0.546124 0 255 255
3.96921 -4.8876 0.546989 0 255 255
3.9097 -4.90988 0.545258 0 255 255
3.92516 -4.96121 0.549586 0 255 255
3.90955 -4.97351 0.549586 0 255 255
3.88778 -4.97792 0.54872 0 255 255
3.87212 -4.99011 0.54872 0 255 255
3.84426 -4.98647 0.546989 0 255 255
3.8277 -4.99919 0.546989 0 255 255
3.82404 -5.02705 0.54872 0 255 255
3.81335 -5.04765 0.549586 0 255 255
3.79748 -5.05961 0.549586 0 255 255
3.78156 -5.07151 0.549586 0 255 255
3.76561 -5.08337 0.549586 0 255 255
3.76144 -5.11122 0.551317 0 255 255
3.7336 -5.10693 0.549586 0 255 255
3.64143 -5.01384 0.538334 0 255 255
3.60234 -4.99294 0.534872 0 255 255
3.63887 -5.07711 0.542662 0 255 255
3.61713 -5.0804 0.541796 0 255 255
3.6069 -5.09987 0.542662 0 255 255
3.59659 -5.11933 0.543527 0 255 255
3.58049 -5.1306 0.543527 0 255 255
3.56435 -5.14183 0.543527 0 255 255
3.55293 -5.16182 0.544393 0 255 255
3.54232 -5.18118 0.545258 0 255 255
3.53162 -5.20053 0.546124 0 255 255
3.52084 -5.21986 0.546989 0 255 255
3.50997 -5.23917 0.547855 0 255 255
3.50453 -5.26676 0.549586 0 255 255
3.49346 -5.28605 0.550451 0 255 255
3.4823 -5.30533 0.551317 0 255 255
3.47013 -5.3252 0.552182 0 255 255
3.45879 -5.34444 0.553048 0 255 255
3.44105 -5.35588 0.553048 0 255 255
3.42957 -5.37506 0.553913 0 255 255
3.41894 -5.39362 0.554779 0 255 255
3.4179 -5.42963 0.557375 0 255 255
3.39987 -5.44094 0.557375 0 255 255
3.39852 -5.47699 0.559972 0 255 255
3.39698 -5.51308 0.562568 0 255 255
3.39524 -5.54922 0.565164 0 255 255
5.92277 -9.74891 0.990985 0 255 255
5.92813 -9.82718 0.997043 0 255 255
5.89212 -9.83721 0.996178 0 255 255
5.851 -9.83855 0.994447 0 255 255
5.80993 -9.83972 0.992716 0 255 255
5.77395 -9.84933 0.991851 0 255 255
5.73124 -9.8512 0.99012 0 255 255
5.69029 -9.85191 0.988389 0 255 255
5.6494 -9.85245 0.986658 0 255 255
5.60857 -9.85283 0.984927 0 255 255
5.57268 -9.86173 0.984061 0 255 255
5.53193 -9.86181 0.98233 0 255 255
5.49122 -9.86173 0.980599 0 255 255
5.4554 -9.87022 0.979734 0 255 255
5.41305 -9.87078 0.978003 0 255 255
5.37726 -9.87899 0.977137 0 255 255
5.335 -9.87923 0.975406 0 255 255
5.30095 -9.88624 0.974541 0 255 255
5.26051 -9.88525 0.97281 0 255 255
5.22478 -9.89292 0.971944 0 255 255
5.18732 -9.90137 0.971079 0 255 255
5.147 -9.89994 0.969348 0 255 255
5.1113 -9.90721 0.968482 0 255 255
5.07561 -9.91435 0.967617 0 255 255
5.03993 -9.92136 0.966751 0 255 255
5.00425 -9.92825 0.965886 0 255 255
4.96412 -9.9261 0.964155 0 255 255
4.92406 -9.9238 0.962424 0 255 255
4.88672 -9.93113 0.961558 0 255 255
4.84676 -9.92853 0.959828 0 255 255
4.8112 -9.93474 0.958962 0 255 255
4.77565 -9.94083 0.958097 0 255 255
4.74011 -9.94679 0.957231 0 255 255
4.70459 -9.95263 0.956366 0 255 255
4.66906 -9.95834 0.9555 0 255 255
4.63356 -9.96392 0.954635 0 255 255
4.59806 -9.96938 0.953769 0 255 255
4.56257 -9.97472 0.952904 0 255 255
4.52124 -9.97165 0.951173 0 255 255
4.48581 -9.97672 0.950307 0 255 255
4.44864 -9.98244 0.949442 0 255 255
4.40921 -9.97814 0.947711 0 255 255
4.37384 -9.98281 0.946845 0 255 255
4.33849 -9.98737 0.94598 0 255 255
4.30315 -9.9918 0.945114 0 255 255
4.26783 -9.99611 0.944249 0 255 255
4.23252 -10.0003 0.943383 0 255 255
4.19723 -10.0044 0.942518 0 255 255
4.1602 -10.009 0.941652 0 255 255
4.12494 -10.0128 0.940787 0 255 255
4.09347 -10.0257 0.940787 0 255 255
4.05821 -10.0293 0.939921 0 255 255
4.02298 -10.0328 0.939056 0 255 255
3.98408 -10.0268 0.937325 0 255 255
3.94891 -10.03 0.936459 0 255 255
3.91376 -10.0331 0.935594 0 255 255
3.87688 -10.0367 0.934728 0 255 255
3.84177 -10.0396 0.933863 0 255 255
3.81021 -10.0516 0.933863 0 255 255
3.77511 -10.0542 0.932997 0 255 255
3.74003 -10.0566 0.932132 0 255 255
3.70498 -10.059 0.931266 0 255 255
3.6716 -10.0712 0.931266 0 255 255
3.63656 -10.0733 0.930401 0 255 255
3.59978 -10.076 0.929535 0 255 255
3.56655 -10.0772 0.92867 0 255 255
3.52982 -10.0796 0.927804 0 255 255
3.49814 -10.0906 0.927804 0 255 255
3.46319 -10.0921 0.926939 0 255 255
3.42826 -10.0935 0.926073 0 255 255
3.39336 -10.0948 0.925208 0 255 255
3.35848 -10.096 0.924342 0 255 255
3.32363 -10.097 0.923477 0 255 255
3.28881 -10.0979 0.922611 0 255 255
3.25401 -10.0987 0.921746 0 255 255
3.22227 -10.1089 0.921746 0 255 255
3.18574 -10.11 0.92088 0 255 255
3.151 -10.1105 0.920015 0 255 255
3.11922 -10.1203 0.920015 0 255 255
3.08451 -10.1205 0.91915 0 255 255
3.04982 -10.1206 0.918284 0 255 255
3.01801 -10.1302 0.918284 0 255 255
2.98617 -10.1396 0.918284 0 255 255
2.95152 -10.1394 0.917418 0 255 255
2.91788 -10.1491 0.917418 0 255 255
2.88326 -10.1486 0.916553 0 255 255
2.78943 -9.93704 0.896647 0 255 255
2.73424 -9.85935 0.888857 0 255 255
2.71115 -9.89672 0.891454 0 255 255
2.71472 -10.0403 0.903571 0 255 255
2.714 -10.1643 0.913957 0 255 255
2.67952 -10.1631 0.913091 0 255 255
2.64758 -10.1715 0.913091 0 255 255
2.61313 -10.1701 0.912226 0 255 255
2.58117 -10.1783 0.912226 0 255 255
2.54676 -10.1767 0.91136 0 255 255
2.513 -10.185 0.91136 0 255 255
2.47863 -10.1832 0.910495 0 255 255
2.4443 -10.1813 0.909629 0 255 255
2.41231 -10.1889 0.909629 0 255 255
2.38029 -10.1964 0.909629 0 255 255
2.34601 -10.1941 0.908764 0 255 255
2.31397 -10.2015 0.908764 0 255 255
2.28191 -10.2087 0.908764 0 255 255
2.2459 -10.2065 0.907898 0 255 255
2.21383 -10.2135 0.907898 0 255 255
2.18173 -10.2204 0.907898 0 255 255
2.14756 -10.2174 0.907033 0 255 255
2.11545 -10.2241 0.907033 0 255 255
2.08332 -10.2307 0.907033 0 255 255
2.04743 -10.2278 0.906167 0 255 255
2.01336 -10.2244 0.905302 0 255 255
1.97944 -10.231 0.905302 0 255 255
1.94908 -10.2369 0.905302 0 255 255
1.91691 -10.2429 0.905302 0 255 255
1.88292 -10.2391 0.904436 0 255 255
1.85074 -10.245 0.904436 0 255 255
1.81855 -10.2507 0.904436 0 255 255
1.78634 -10.2564 0.904436 0 255 255
1.75243 -10.2521 0.903571 0 255 255
1.71842 -10.2579 0.903571 0 255 255
1.68619 -10.2632 0.903571 0 255 255
1.65394 -10.2685 0.903571 0 255 255
1.62167 -10.2736 0.903571 0 255 255
1.58939 -10.2787 0.903571 0 255 255
1.55709 -10.2836 0.903571 0 255 255
1.52152 -10.2789 0.902705 0 255 255
1.48922 -10.2836 0.902705 0 255 255
1.4569 -10.2882 0.902705 0 255 255
1.42457 -10.2927 0.902705 0 255 255
1.39223 -10.2972 0.902705 0 255 255
1.35988 -10.3015 0.902705 0 255 255
1.32571 -10.3059 0.902705 0 255 255
1.29332 -10.3101 0.902705 0 255 255
1.26093 -10.3141 0.902705 0 255 255
1.22734 -10.3081 0.90184 0 255 255
1.19495 -10.3119 0.90184 0 255 255
1.16075 -10.3158 0.90184 0 255 255
1.12942 -10.3293 0.902705 0 255 255
1.09696 -10.3328 0.902705 0 255 255
1.06347 -10.3263 0.90184 0 255 255
1.03202 -10.3395 0.902705 0 255 255
0.99953 -10.3427 0.902705 0 255 255
0.965178 -10.3259 0.900974 0 255 255
0.35772 -4.2689 0.37216 0 255 255
0.293862 -3.6444 0.317635 0 255 255
0.286259 -3.69497 0.321962 0 255 255
0.275387 -3.70579 0.322827 0 255 255
0.261686 -3.6868 0.321096 0 255 255
0.138237 -2.24727 0.195601 0 255 255
0.131756 -2.25764 0.196466 0 255 255
0.124663 -2.25804 0.196466 0 255 255
0.11705 -2.24848 0.195601 0 255 255
0.1095 -2.23888 0.194735 0 255 255
0.101621 -2.22928 0.19387 0 255 255
0.094195 -2.21963 0.193004 0 255 255
0.086444 -2.20998 0.192139 0 255 255
0.079887 -2.21023 0.192139 0 255 255
0.072614 -2.20051 0.191273 0 255 255
0.065403 -2.19077 0.190408 0 255 255
0.05852 -2.19096 0.190408 0 255 255
0.051402 -2.18118 0.189542 0 255 255
0.043967 -2.17138 0.188677 0 255 255
0.037145 -2.1715 0.188677 0 255 255
0.030323 -2.17161 0.188677 0 255 255
0.023393 -2.16173 0.187811 0 255 255
0.016525 -2.15183 0.186946 0 255 255
0.009765 -2.15187 0.186946 0 255 255
0.002629 -2.15189 0.186946 0 255 255
-0.004131 -2.15189 0.186946 0 255 255
-0.010841 -2.14191 0.18608 0 255 255
-0.01757 -2.14186 0.18608 0 255 255
-0.024186 -2.13183 0.185215 0 255 255
-0.031028 -2.14171 0.18608 0 255 255
-0.037756 -2.1416 0.18608 0 255 255
-0.044277 -2.13151 0.185215 0 255 255
-0.051344 -2.13135 0.185215 0 255 255
-0.05804 -2.13118 0.185215 0 255 255
-0.065038 -2.14094 0.18608 0 255 255
-0.071764 -2.14073 0.18608 0 255 255
-0.078123 -2.13054 0.185215 0 255 255
-0.085212 -2.14024 0.18608 0 255 255
-0.092739 -2.14989 0.186946 0 255 255
-0.09811 -2.11974 0.184349 0 255 255
-0.105753 -2.13932 0.18608 0 255 255
-0.112473 -2.13898 0.18608 0 255 255
-0.119747 -2.14856 0.186946 0 255 255
-0.126496 -2.14817 0.186946 0 255 255
-0.133001 -2.1378 0.18608 0 255 255
-0.139716 -2.13737 0.18608 0 255 255
-0.14643 -2.13692 0.18608 0 255 255
-0.15243 -2.12651 0.185215 0 255 255
-0.159854 -2.13596 0.18608 0 255 255
-0.166563 -2.13545 0.18608 0 255 255
-0.173271 -2.13491 0.18608 0 255 255
-0.180815 -2.14428 0.186946 0 255 255
-0.188794 -2.1536 0.187811 0 255 255
-0.195559 -2.15299 0.187811 0 255 255
-0.203254 -2.16229 0.188677 0 255 255
-0.210046 -2.16164 0.188677 0 255 255
-0.217831 -2.17088 0.189542 0 255 255
-0.225676 -2.18009 0.190408 0 255 255
-0.233962 -2.18924 0.191273 0 255 255
-0.240839 -2.18849 0.191273 0 255 255
-0.248095 -2.18769 0.191273 0 255 255
-0.257274 -2.20669 0.193004 0 255 255
-0.26382 -2.20591 0.193004 0 255 255
-0.270749 -2.20507 0.193004 0 255 255
-0.27806 -2.20416 0.193004 0 255 255
-0.288817 -2.23292 0.195601 0 255 255
-0.297139 -2.24188 0.196466 0 255 255
-0.498481 -3.67236 0.321962 0 255 255
-0.5155 -3.71025 0.325424 0 255 255
-0.536968 -3.77766 0.331482 0 255 255
-0.548833 -3.77595 0.331482 0 255 255
-0.560692 -3.77421 0.331482 0 255 255
-0.573205 -3.77233 0.331482 0 255 255
-0.586581 -3.78035 0.332348 0 255 255
-0.598454 -3.77849 0.332348 0 255 255
-0.611911 -3.78643 0.333213 0 255 255
-0.623803 -3.78449 0.333213 0 255 255
-0.635689 -3.78251 0.333213 0 255 255
-0.64757 -3.78049 0.333213 0 255 255
-0.661156 -3.78825 0.334079 0 255 255
-0.673714 -3.78604 0.334079 0 255 255
-0.685605 -3.78391 0.334079 0 255 255
-0.69749 -3.78173 0.334079 0 255 255
-0.711205 -3.78931 0.334944 0 255 255
-0.721237 -3.77728 0.334079 0 255 255
-0.73566 -3.78464 0.334944 0 255 255
-0.746886 -3.78244 0.334944 0 255 255
-1.52145 -7.57969 0.67162 0 255 255
-1.54658 -7.5746 0.67162 0 255 255
-1.57239 -7.57946 0.672485 0 255 255
-1.59619 -7.57448 0.672485 0 255 255
-1.62415 -7.58892 0.674216 0 255 255
-1.64799 -7.58378 0.674216 0 255 255
-1.67395 -7.58829 0.675082 0 255 255
-1.69778 -7.58299 0.675082 0 255 255
-0.32232 -1.37746 0.122899 0 255 255
-0.324346 -1.36675 0.122034 0 255 255
-0.328638 -1.36573 0.122034 0 255 255
-0.332927 -1.36469 0.122034 0 255 255
-0.327646 -1.32495 0.118572 0 255 255
-0.329614 -1.31419 0.117707 0 255 255
-0.328833 -1.29384 0.115976 0 255 255
-0.320475 -1.24456 0.111648 0 255 255
-0.326898 -1.25319 0.112514 0 255 255
-0.328288 -1.24252 0.111648 0 255 255
-0.334766 -1.25111 0.112514 0 255 255
-0.333484 -1.23082 0.110783 0 255 255
-0.342838 -1.24892 0.112514 0 255 255
-0.344092 -1.23824 0.111648 0 255 255
-0.347981 -1.23715 0.111648 0 255 255
-0.357321 -1.25522 0.113379 0 255 255
-0.358505 -1.24451 0.112514 0 255 255
-0.362413 -1.24338 0.112514 0 255 255
-0.366317 -1.24224 0.112514 0 255 255
-0.375913 -1.26017 0.114245 0 255 255
-0.37987 -1.25899 0.114245 0 255 255
-0.384044 -1.25772 0.114245 0 255 255
-0.382114 -1.23747 0.112514 0 255 255
-0.388969 -1.24577 0.113379 0 255 255
-0.389882 -1.23504 0.112514 0 255 255
-0.397006 -1.24323 0.113379 0 255 255
-0.40397 -1.25146 0.114245 0 255 255
-0.401719 -1.23124 0.112514 0 255 255
-0.408705 -1.23944 0.113379 0 255 255
-0.412597 -1.23815 0.113379 0 255 255
-0.416485 -1.23685 0.113379 0 255 255
-0.420584 -1.23546 0.113379 0 255 255
-0.424463 -1.23413 0.113379 0 255 255
-0.425068 -1.22338 0.112514 0 255 255
-0.435508 -1.24084 0.114245 0 255 255
-0.439404 -1.23946 0.114245 0 255 255
-0.443296 -1.23808 0.114245 0 255 255
-0.447183 -1.23668 0.114245 0 255 255
-0.447649 -1.22591 0.113379 0 255 255
-0.454945 -1.23384 0.114245 0 255 255
-0.458819 -1.23241 0.114245 0 255 255
-0.46641 -1.24021 0.11511 0 255 255
-0.466768 -1.22942 0.114245 0 255 255
-0.474193 -1.23725 0.11511 0 255 255
-0.474483 -1.22646 0.114245 0 255 255
-0.482173 -1.23416 0.11511 0 255 255
-0.500666 -1.26971 0.118572 0 255 255
-0.489918 -1.23111 0.11511 0 255 255
-0.497496 -1.23881 0.115976 0 255 255
-0.501385 -1.23724 0.115976 0 255 255
-0.50527 -1.23566 0.115976 0 255 255
-0.513166 -1.24319 0.116841 0 255 255
-0.513239 -1.23237 0.115976 0 255 255
-0.517108 -1.23075 0.115976 0 255 255
-0.524859 -1.23829 0.116841 0 255 255
-0.528747 -1.23664 0.116841 0 255 255
-0.532629 -1.23497 0.116841 0 255 255
-0.536507 -1.23329 0.116841 0 255 255
-0.540378 -1.2316 0.116841 0 255 255
-0.552308 -1.24812 0.118572 0 255 255
-0.556444 -1.24628 0.118572 0 255 255
-0.556266 -1.23544 0.117707 0 255 255
-0.564263 -1.24276 0.118572 0 255 255
-0.568165 -1.24098 0.118572 0 255 255
-0.567885 -1.23014 0.117707 0 255 255
-0.575951 -1.23739 0.118572 0 255 255
-0.575603 -1.22655 0.117707 0 255 255
-0.583929 -1.23364 0.118572 0 255 255
-0.592093 -1.24079 0.119438 0 255 255
-0.595988 -1.23892 0.119438 0 255 255
-0.599877 -1.23705 0.119438 0 255 255
-0.599385 -1.2262 0.118572 0 255 255
-0.607638 -1.23325 0.119438 0 255 255
-0.611509 -1.23134 0.119438 0 255 255
-0.615374 -1.22941 0.119438 0 255 255
-0.623937 -1.23626 0.120303 0 255 255
-0.627817 -1.23429 0.120303 0 255 255
-0.631692 -1.23231 0.120303 0 255 255
-0.640133 -1.23917 0.121168 0 255 255
-0.639422 -1.22832 0.120303 0 255 255
-4.15403 -7.79946 0.767689 0 255 255
-4.35753 -8.11995 0.800578 0 255 255
-4.45553 -8.23689 0.81356 0 255 255
-4.49569 -8.2491 0.816156 0 255 255
-4.52637 -8.24366 0.817022 0 255 255
-4.56189 -8.24684 0.818753 0 255 255
-4.60233 -8.25857 0.821349 0 255 255
-0.173487 -0.279261 0.028561 0 255 255
-0.158512 -0.253377 0.025965 0 255 255
-0.143416 -0.227565 0.023368 0 255 255
-0.165483 -0.26076 0.02683 0 255 255
-0.155615 -0.243422 0.025099 0 255 255
-0.150945 -0.234581 0.024234 0 255 255
-0.146264 -0.225745 0.023368 0 255 255
-0.152416 -0.233628 0.024234 0 255 255
-0.158661 -0.241447 0.025099 0 255 255
-0.148425 -0.22433 0.023368 0 255 255
-0.154652 -0.232154 0.024234 0 255 255
-0.144282 -0.215119 0.022503 0 255 255
-0.144957 -0.214665 0.022503 0 255 255
-0.145631 -0.214209 0.022503 0 255 255
-0.14634 -0.213725 0.022503 0 255 255
-0.141357 -0.205061 0.021637 0 255 255
-0.1704 -0.245539 0.025965 0 255 255
-0.165465 -0.236836 0.025099 0 255 255
-0.166208 -0.236315 0.025099 0 255 255
-0.178464 -0.252053 0.02683 0 255 255
-0.173472 -0.243379 0.025965 0 255 255
-0.174236 -0.242833 0.025965 0 255 255
-0.163371 -0.226103 0.024234 0 255 255
-0.16994 -0.233646 0.025099 0 255 255
-0.153018 -0.208996 0.022503 0 255 255
-0.159584 -0.216534 0.023368 0 255 255
-0.148392 -0.200029 0.021637 0 255 255
-0.154981 -0.207544 0.022503 0 255 255
-0.155632 -0.207056 0.022503 0 255 255
-0.150305 -0.198595 0.021637 0 255 255
-0.138854 -0.182272 0.019906 0 255 255
-0.145488 -0.189741 0.020772 0 255 255
-0.15217 -0.19717 0.021637 0 255 255
-0.152789 -0.196691 0.021637 0 255 255
-0.153406 -0.19621 0.021637 0 255 255
-0.154022 -0.195727 0.021637 0 255 255
-0.154636 -0.195242 0.021637 0 255 255
-0.149039 -0.186965 0.020772 0 255 255
-0.15586 -0.194267 0.021637 0 255 255
-0.162728 -0.201527 0.022503 0 255 255
-0.16968 -0.208717 0.023368 0 255 255
-0.182952 -0.223604 0.025099 0 255 255
-0.19632 -0.238409 0.02683 0 255 255
-0.19071 -0.23012 0.025965 0 255 255
-0.204195 -0.244821 0.027696 0 255 255
-0.192153 -0.228917 0.025965 0 255 255
-0.225016 -0.266365 0.030292 0 255 255
-0.225852 -0.265657 0.030292 0 255 255
-0.239687 -0.280044 0.032023 0 255 255
-0.247068 -0.286838 0.032889 0 255 255
-0.241442 -0.278532 0.032023 0 255 255
-0.242316 -0.277772 0.032023 0 255 255
-0.24976 -0.284496 0.032889 0 255 255
-0.257249 -0.291176 0.033754 0 255 255
-0.264782 -0.297812 0.03462 0 255 255
-0.265716 -0.296979 0.03462 0 255 255
-0.273314 -0.303546 0.035485 0 255 255
-0.280956 -0.310068 0.036351 0 255 255
-0.281982 -0.309135 0.036351 0 255 255
-0.282952 -0.308248 0.036351 0 255 255
-0.277159 -0.300039 0.035485 0 255 255
-0.284883 -0.306464 0.036351 0 255 255
-0.292651 -0.312843 0.037216 0 255 255
-0.293632 -0.311922 0.037216 0 255 255
-0.294611 -0.310998 0.037216 0 255 255
-0.288712 -0.30286 0.036351 0 255 255
-0.303511 -0.316277 0.038082 0 255 255
-0.311423 -0.322488 0.038947 0 255 255
-0.319378 -0.328653 0.039813 0 255 255
-0.313443 -0.320525 0.038947 0 255 255
-0.321437 -0.32664 0.039813 0 255 255
-0.329471 -0.332707 0.040678 0 255 255
-0.344639 -0.345724 0.042409 0 255 255
-0.345724 -0.344639 0.042409 0 255 255
-0.389271 -0.385619 0.047602 0 255 255
-0.39758 -0.391383 0.048467 0 255 255
-0.405929 -0.397099 0.049333 0 255 255
-0.421462 -0.40971 0.051064 0 255 255
-0.429912 -0.415306 0.051929 0 255 255
-0.438401 -0.420853 0.052795 0 255 255
-0.439721 -0.419473 0.052795 0 255 255
-0.441037 -0.41809 0.052795 0 255 255
-0.449674 -0.423455 0.05366 0 255 255
-0.458276 -0.428847 0.054526 0 255 255
-0.459621 -0.427405 0.054526 0 255 255
-0.460962 -0.425959 0.054526 0 255 255
-0.462297 -0.424509 0.054526 0 255 255
-0.470988 -0.42977 0.055391 0 255 255
-0.472336 -0.428288 0.055391 0 255 255
-0.473679 -0.426802 0.055391 0 255 255
-0.48244 -0.431957 0.056257 0 255 255
-0.483794 -0.43044 0.056257 0 255 255
-0.492684 -0.43543 0.057122 0 255 255
-0.486564 -0.427306 0.056257 0 255 255
-0.49541 -0.432326 0.057122 0 255 255
-0.489239 -0.424241 0.056257 0 255 255
-0.498117 -0.429205 0.057122 0 255 255
-0.491895 -0.421158 0.056257 0 255 255
-0.500804 -0.426067 0.057122 0 255 255
-0.509748 -0.430923 0.057988 0 255 255
-0.503471 -0.422912 0.057122 0 255 255
-0.497221 -0.414857 0.056257 0 255 255
-0.498522 -0.413293 0.056257 0 255 255
-0.499818 -0.411725 0.056257 0 255 255
-0.508818 -0.416463 0.057122 0 255 255
-0.510124 -0.414862 0.057122 0 255 255
-0.503676 -0.406996 0.056257 0 255 255
-0.51272 -0.411649 0.057122 0 255 255
-0.514011 -0.410036 0.057122 0 255 255
-0.515297 -0.408419 0.057122 0 255 255
-0.50882 -0.400546 0.056257 0 255 255
-0.510076 -0.398945 0.056257 0 255 255
-0.511327 -0.397341 0.056257 0 255 255
-0.512573 -0.395733 0.056257 0 255 255
-0.513813 -0.39412 0.056257 0 255 255
-0.515049 -0.392504 0.056257 0 255 255
-0.51628 -0.390884 0.056257 0 255 255
-0.509543 -0.383272 0.055391 0 255 255
-0.518725 -0.387633 0.056257 0 255 255
-0.519941 -0.386001 0.056257 0 255 255
-0.513133 -0.378453 0.055391 0 255 255
-0.514319 -0.376839 0.055391 0 255 255
-0.515566 -0.375131 0.055391 0 255 255
-0.524816 -0.379345 0.056257 0 255 255
-0.526071 -0.377603 0.056257 0 255 255
-0.5353 -0.381826 0.057122 0 255 255
-0.528368 -0.374383 0.056257 0 255 255
-0.529542 -0.372721 0.056257 0 255 255
-0.481721 -0.336804 0.051064 0 255 255
-0.474594 -0.329606 0.050198 0 255 255
-0.467427 -0.322456 0.049333 0 255 255
-0.468438 -0.320986 0.049333 0 255 255
-0.461263 -0.313827 0.048467 0 255 255
-0.470501 -0.317955 0.049333 0 255 255
-0.471497 -0.316475 0.049333 0 255 255
-0.4642 -0.309466 0.048467 0 255 255
-0.456863 -0.302506 0.047602 0 255 255
-0.466135 -0.306543 0.048467 0 255 255
-0.475437 -0.310525 0.049333 0 255 255
-0.459694 -0.298187 0.047602 0 255 255
-0.46068 -0.296661 0.047602 0 255 255
-0.46161 -0.295212 0.047602 0 255 255
-0.462535 -0.29376 0.047602 0 255 255
-0.471882 -0.297621 0.048467 0 255 255
-0.481258 -0.301425 0.049333 0 255 255
-0.482203 -0.299911 0.049333 0 255 255
-0.483143 -0.298395 0.049333 0 255 255
-0.484078 -0.296876 0.049333 0 255 255
-0.476499 -0.290172 0.048467 0 255 255
-0.477459 -0.28859 0.048467 0 255 255
-0.486854 -0.2923 0.049333 0 255 255
-0.48777 -0.290769 0.049333 0 255 255
-0.497254 -0.29431 0.050198 0 255 255
-0.489587 -0.287699 0.049333 0 255 255
-0.499145 -0.291092 0.050198 0 255 255
-0.500057 -0.289523 0.050198 0 255 255
-0.500964 -0.287951 0.050198 0 255 255
-0.510519 -0.291313 0.051064 0 255 255
-0.511431 -0.289707 0.051064 0 255 255
-0.503655 -0.283216 0.050198 0 255 255
-0.513242 -0.286488 0.051064 0 255 255
-0.505425 -0.280046 0.050198 0 255 255
-0.506351 -0.278369 0.050198 0 255 255
-0.507223 -0.276776 0.050198 0 255 255
-0.50809 -0.275182 0.050198 0 255 255
-0.500177 -0.268867 0.049333 0 255 255
-0.509809 -0.271984 0.050198 0 255 255
-0.510661 -0.270381 0.050198 0 255 255
-0.511508 -0.268775 0.050198 0 255 255
-0.503516 -0.262561 0.049333 0 255 255
-0.513233 -0.265467 0.050198 0 255 255
-0.514064 -0.263853 0.050198 0 255 255
-0.506058 -0.257627 0.049333 0 255 255
-0.515712 -0.260618 0.050198 0 255 255
-0.507622 -0.254531 0.049333 0 255 255
-0.508419 -0.252935 0.049333 0 255 255
-0.518145 -0.255746 0.050198 0 255 255
-0.509999 -0.249735 0.049333 0 255 255
-0.510781 -0.248132 0.049333 0 255 255
-0.520532 -0.250851 0.050198 0 255 255
-0.51233 -0.244918 0.049333 0 255 255
-0.513097 -0.243307 0.049333 0 255 255
-0.513901 -0.241604 0.049333 0 255 255
-0.523686 -0.244199 0.050198 0 255 255
-0.524451 -0.242552 0.050198 0 255 255
-0.52521 -0.240904 0.050198 0 255 255
-0.516896 -0.235127 0.049333 0 255 255
-0.526713 -0.237599 0.050198 0 255 255
-0.527457 -0.235943 0.050198 0 255 255
-0.519089 -0.230245 0.049333 0 255 255
-0.528929 -0.232624 0.050198 0 255 255
-0.529657 -0.230961 0.050198 0 255 255
-0.539525 -0.23325 0.051064 0 255 255
-0.531098 -0.227629 0.050198 0 255 255
-0.531811 -0.225959 0.050198 0 255 255
-0.532518 -0.224287 0.050198 0 255 255
-0.53322 -0.222613 0.050198 0 255 255
-0.533955 -0.220844 0.050198 0 255 255
-0.534646 -0.219165 0.050198 0 255 255
-0.535332 -0.217485 0.050198 0 255 255
-0.536013 -0.215802 0.050198 0 255 255
-0.536688 -0.214117 0.050198 0 255 255
-0.546623 -0.216092 0.051064 0 255 255
-0.538023 -0.210741 0.050198 0 255 255
-0.538682 -0.209049 0.050198 0 255 255
-0.530037 -0.203781 0.049333 0 255 255
-0.549295 -0.209206 0.051064 0 255 255
-0.540628 -0.203963 0.050198 0 255 255
-0.531934 -0.198776 0.049333 0 255 255
-0.532556 -0.197104 0.049333 0 255 255
-0.542561 -0.198764 0.050198 0 255 255
-0.533818 -0.193661 0.049333 0 255 255
-0.534424 -0.191983 0.049333 0 255 255
-0.525638 -0.186965 0.048467 0 255 255
-0.535619 -0.188621 0.049333 0 255 255
-0.536209 -0.186938 0.049333 0 255 255
-0.546211 -0.188502 0.050198 0 255 255
-0.527946 -0.180344 0.048467 0 255 255
-0.52851 -0.178685 0.048467 0 255 255
-0.529068 -0.177024 0.048467 0 255 255
-0.529622 -0.175361 0.048467 0 255 255
-0.53017 -0.173696 0.048467 0 255 255
-0.530713 -0.17203 0.048467 0 255 255
-0.531251 -0.170362 0.048467 0 255 255
-0.522317 -0.165588 0.047602 0 255 255
-0.53234 -0.166927 0.048467 0 255 255
-0.532862 -0.165254 0.048467 0 255 255
-0.523854 -0.160658 0.047602 0 255 255
-0.53389 -0.161903 0.048467 0 255 255
-0.524853 -0.157364 0.047602 0 255 255
-0.534897 -0.158545 0.048467 0 255 255
-0.535392 -0.156864 0.048467 0 255 255
-0.526313 -0.15241 0.047602 0 255 255
-0.526789 -0.150756 0.047602 0 255 255
-0.52726 -0.1491 0.047602 0 255 255
-0.518131 -0.144762 0.046736 0 255 255
-0.528187 -0.145784 0.047602 0 255 255
-0.51903 -0.141504 0.046736 0 255 255
-0.529117 -0.142371 0.047602 0 255 255
-0.519933 -0.138149 0.046736 0 255 255
-0.520365 -0.136515 0.046736 0 255 255
-0.511147 -0.132382 0.045871 0 255 255
-0.530864 -0.13571 0.047602 0 255 255
-0.521628 -0.131605 0.046736 0 255 255
-0.512372 -0.127559 0.045871 0 255 255
-0.51277 -0.125948 0.045871 0 255 255
-0.513163 -0.124337 0.045871 0 255 255
-0.513551 -0.122724 0.045871 0 255 255
-0.513934 -0.12111 0.045871 0 255 255
-0.494904 -0.114986 0.04414 0 255 255
-0.514685 -0.117879 0.045871 0 255 255
-0.505335 -0.114068 0.045005 0 255 255
-0.505691 -0.112479 0.045005 0 255 255
-0.506041 -0.11089 0.045005 0 255 255
-0.496668 -0.107111 0.04414 0 255 255
-0.506747 -0.10762 0.045005 0 255 255
-0.507083 -0.106027 0.045005 0 255 255
-0.507413 -0.104434 0.045005 0 255 255
-0.48821 -0.098884 0.043274 0 255 255
-0.488519 -0.09735 0.043274 0 255 255
-0.498598 -0.097731 0.04414 0 255 255
-0.498903 -0.096164 0.04414 0 255 255
-0.499203 -0.094596 0.04414 0 255 255
-0.489703 -0.091203 0.043274 0 255 255
-0.489987 -0.089664 0.043274 0 255 255
-0.490267 -0.088125 0.043274 0 255 255
-0.490541 -0.086584 0.043274 0 255 255
-0.490811 -0.085042 0.043274 0 255 255
-0.491075 -0.0835 0.043274 0 255 255
-0.49135 -0.081871 0.043274 0 255 255
-0.49159 -0.080413 0.043274 0 255 255
-0.472167 -0.075713 0.041543 0 255 255
-0.482257 -0.075692 0.042409 0 255 255
-0.472646 -0.072663 0.041543 0 255 255
-0.472872 -0.071177 0.041543 0 255 255
-0.473093 -0.069692 0.041543 0 255 255
-0.47331 -0.068205 0.041543 0 255 255
-0.473522 -0.066718 0.041543 0 255 255
-0.46386 -0.063871 0.040678 0 255 255
-0.493679 -0.066397 0.043274 0 255 255
-0.464252 -0.060955 0.040678 0 255 255
-0.464441 -0.059496 0.040678 0 255 255
-0.464626 -0.058037 0.040678 0 255 255
-0.464806 -0.056577 0.040678 0 255 255
-0.464981 -0.055116 0.040678 0 255 255
-0.465152 -0.053655 0.040678 0 255 255
-0.465318 -0.052194 0.040678 0 255 255
-0.46548 -0.050732 0.040678 0 255 255
-0.465637 -0.049269 0.040678 0 255 255
-0.46579 -0.047806 0.040678 0 255 255
-0.456024 -0.045356 0.039813 0 255 255
-0.466081 -0.044879 0.040678 0 255 255
-0.4563 -0.04249 0.039813 0 255 255
-0.466361 -0.041868 0.040678 0 255 255
-0.456565 -0.039543 0.039813 0 255 255
-0.456687 -0.038108 0.039813 0 255 255
-0.446874 -0.035876 0.038947 0 255 255
-0.456917 -0.035238 0.039813 0 255 255
-0.457026 -0.033802 0.039813 0 255 255
-0.457129 -0.032366 0.039813 0 255 255
-0.457229 -0.03093 0.039813 0 255 255
-0.457324 -0.029494 0.039813 0 255 255
-0.457414 -0.028057 0.039813 0 255 255
-0.467446 -0.027198 0.040678 0 255 255
-0.457581 -0.025182 0.039813 0 255 255
-0.457658 -0.023745 0.039813 0 255 255
-0.467681 -0.022792 0.040678 0 255 255
-0.467751 -0.021322 0.040678 0 255 255
-0.457862 -0.01943 0.039813 0 255 255
-0.457921 -0.017992 0.039813 0 255 255
-0.457975 -0.016553 0.039813 0 255 255
-0.448068 -0.014786 0.038947 0 255 255
-0.45807 -0.013675 0.039813 0 255 255
-0.45811 -0.012236 0.039813 0 255 255
-0.458147 -0.010797 0.039813 0 255 255
-0.458178 -0.009358 0.039813 0 255 255
-0.438284 -0.007574 0.038082 0 255 255
-0.448268 -0.006259 0.038947 0 255 255
-0.448285 -0.004851 0.038947 0 255 255
-0.438336 -0.003366 0.038082 0 255 255
-0.438344 -0.002066 0.038082 0 255 255
-0.448311 -0.000704 0.038947 0 255 255
-0.448311 0.000782 0.038947 0 255 255
-0.448306 0.002191 0.038947 0 255 255
-0.448297 0.003599 0.038947 0 255 255
-0.448283 0.005008 0.038947 0 255 255
-0.438304 0.006273 0.038082 0 255 255
-0.438282 0.00765 0.038082 0 255 255
-0.438256 0.009027 0.038082 0 255 255
-0.438225 0.010404 0.038082 0 255 255
-0.448149 0.012048 0.038947 0 255 255
-0.448109 0.013456 0.038947 0 255 255
-0.438108 0.014533 0.038082 0 255 255
-0.448016 0.016271 0.038947 0 255 255
-0.447963 0.017679 0.038947 0 255 255
-0.437952 0.018662 0.038082 0 255 255
-0.447843 0.020493 0.038947 0 255 255
-0.437826 0.021413 0.038082 0 255 255
-0.437756 0.022789 0.038082 0 255 255
-0.44763 0.024713 0.038947 0 255 255
-0.44755 0.026119 0.038947 0 255 255
-0.427578 0.026302 0.037216 0 255 255
-0.437435 0.028288 0.038082 0 255 255
-0.437344 0.029662 0.038082 0 255 255
-0.437249 0.031036 0.038082 0 255 255
-0.437149 0.032409 0.038082 0 255 255
-0.446978 0.03455 0.038947 0 255 255
-0.436937 0.035155 0.038082 0 255 255
-0.436824 0.036528 0.038082 0 255 255
-0.436707 0.0379 0.038082 0 255 255
-0.436579 0.039348 0.038082 0 255 255
-0.436454 0.040719 0.038082 0 255 255
-0.436331 0.042014 0.038082 0 255 255
-0.436197 0.043384 0.038082 0 255 255
-0.43605 0.044831 0.038082 0 255 255
-0.435907 0.0462 0.038082 0 255 255
-0.445664 0.048651 0.038947 0 255 255
-0.445509 0.050051 0.038947 0 255 255
-0.445349 0.05145 0.038947 0 255 255
-0.445185 0.052849 0.038947 0 255 255
-0.445017 0.054247 0.038947 0 255 255
-0.444845 0.055645 0.038947 0 255 255
-0.434786 0.055775 0.038082 0 255 255
-0.434609 0.05714 0.038082 0 255 255
-0.4443 0.059835 0.038947 0 255 255
-0.434241 0.05987 0.038082 0 255 255
-0.443916 0.062625 0.038947 0 255 255
-0.443717 0.06402 0.038947 0 255 255
-0.443514 0.065413 0.038947 0 255 255
-0.443306 0.066806 0.038947 0 255 255
-0.462787 0.07123 0.040678 0 255 255
-0.452719 0.071137 0.039813 0 255 255
-0.452493 0.072559 0.039813 0 255 255
-0.462095 0.075588 0.040678 0 255 255
-0.461855 0.077039 0.040678 0 255 255
-0.461611 0.07849 0.040678 0 255 255
-0.461362 0.07994 0.040678 0 255 255
-0.461109 0.081389 0.040678 0 255 255
-0.460851 0.082837 0.040678 0 255 255
-0.450788 0.082491 0.039813 0 255 255
-0.460321 0.085731 0.040678 0 255 255
-0.450261 0.085322 0.039813 0 255 255
-0.459773 0.088622 0.040678 0 255 255
-0.459493 0.090066 0.040678 0 255 255
-0.449437 0.089562 0.039813 0 255 255
-0.458918 0.092951 0.040678 0 255 255
-0.458623 0.094392 0.040678 0 255 255
-0.458325 0.095833 0.040678 0 255 255
-0.458021 0.097272 0.040678 0 255 255
-0.457713 0.09871 0.040678 0 255 255
-0.457401 0.100148 0.040678 0 255 255
-0.457084 0.101584 0.040678 0 255 255
-0.456763 0.10302 0.040678 0 255 255
-0.466148 0.106677 0.041543 0 255 255
-0.446402 0.103635 0.039813 0 255 255
-0.465469 0.109603 0.041543 0 255 255
-0.455432 0.108751 0.040678 0 255 255
-0.455088 0.110182 0.040678 0 255 255
-0.45474 0.111611 0.040678 0 255 255
-0.454387 0.113039 0.040678 0 255 255
-0.46369 0.116901 0.041543 0 255 255
-0.453668 0.115891 0.040678 0 255 255
-0.462946 0.119812 0.041543 0 255 255
-0.462567 0.121266 0.041543 0 255 255
-0.452555 0.120162 0.040678 0 255 255
-0.471417 0.126757 0.042409 0 255 255
-0.461404 0.12562 0.041543 0 255 255
-0.451403 0.124422 0.040678 0 255 255
-0.479798 0.133872 0.043274 0 255 255
-0.450612 0.127256 0.040678 0 255 255
-0.469368 0.134146 0.042409 0 255 255
-0.468944 0.13562 0.042409 0 255 255
-0.449393 0.131497 0.040678 0 255 255
-0.468059 0.138645 0.042409 0 255 255
-0.467645 0.140033 0.042409 0 255 255
-0.467203 0.141502 0.042409 0 255 255
-0.457231 0.140051 0.041543 0 255 255
-0.456788 0.141487 0.041543 0 255 255
-0.465849 0.145899 0.042409 0 255 255
-0.465388 0.147362 0.042409 0 255 255
-0.464923 0.148823 0.042409 0 255 255
-0.473932 0.15335 0.043274 0 255 255
-0.463979 0.151741 0.042409 0 255 255
-0.4635 0.153198 0.042409 0 255 255
-0.463016 0.154653 0.042409 0 255 255
-0.471967 0.159293 0.043274 0 255 255
-0.471464 0.160775 0.043274 0 255 255
-0.470957 0.162255 0.043274 0 255 255
-0.470445 0.163734 0.043274 0 255 255
-0.469928 0.165211 0.043274 0 255 255
-0.478795 0.170021 0.04414 0 255 255
-0.478258 0.171524 0.04414 0 255 255
-0.477717 0.173025 0.04414 0 255 255
-0.477171 0.174526 0.04414 0 255 255
-0.476621 0.176024 0.04414 0 255 255
-0.476065 0.17752 0.04414 0 255 255
-0.475505 0.179015 0.04414 0 255 255
-0.484221 0.184132 0.045005 0 255 255
-0.483673 0.185568 0.045005 0 255 255
-0.473797 0.183489 0.04414 0 255 255
-0.482497 0.188603 0.045005 0 255 255
-0.463367 0.182806 0.043274 0 255 255
-0.472047 0.187946 0.04414 0 255 255
-0.480698 0.193142 0.045005 0 255 255
-0.470856 0.190908 0.04414 0 255 255
-0.479475 0.196158 0.045005 0 255 255
-0.478856 0.197664 0.045005 0 255 255
-0.48743 0.202997 0.045871 0 255 255
-0.477605 0.200669 0.045005 0 255 255
-0.476972 0.202168 0.045005 0 255 255
-0.485495 0.207582 0.045871 0 255 255
-0.475693 0.205161 0.045005 0 255 255
-0.484181 0.210628 0.045871 0 255 255
-0.483517 0.212149 0.045871 0 255 255
-0.482848 0.213667 0.045871 0 255 255
-0.482175 0.215182 0.045871 0 255 255
-0.481496 0.216696 0.045871 0 255 255
-0.480813 0.218208 0.045871 0 255 255
-0.480125 0.219717 0.045871 0 255 255
-0.479433 0.221225 0.045871 0 255 255
-0.469703 0.218527 0.045005 0 255 255
-0.477994 0.224316 0.045871 0 255 255
-0.477326 0.225733 0.045871 0 255 255
-0.476615 0.227231 0.045871 0 255 255
-0.484878 0.233043 0.046736 0 255 255
-0.475178 0.230222 0.045871 0 255 255
-0.474452 0.231713 0.045871 0 255 255
-0.473722 0.233203 0.045871 0 255 255
-0.472987 0.23469 0.045871 0 255 255
-0.463337 0.231718 0.045005 0 255 255
-0.471503 0.237657 0.045871 0 255 255
-0.470754 0.239137 0.045871 0 255 255
-0.478868 0.245155 0.046736 0 255 255
-0.469242 0.24209 0.045871 0 255 255
-0.468479 0.243563 0.045871 0 255 255
-0.476537 0.249657 0.046736 0 255 255
-0.47575 0.251153 0.046736 0 255 255
-0.474958 0.252646 0.046736 0 255 255
-0.474162 0.254137 0.046736 0 255 255
-0.464596 0.250892 0.045871 0 255 255
-0.472556 0.257111 0.046736 0 255 255
-0.471746 0.258595 0.046736 0 255 255
-0.470931 0.260075 0.046736 0 255 255
-0.470112 0.261554 0.046736 0 255 255
-0.469288 0.263029 0.046736 0 255 255
-0.459784 0.259604 0.045871 0 255 255
-0.458966 0.261047 0.045871 0 255 255
-0.466788 0.26744 0.046736 0 255 255
-0.457317 0.263926 0.045871 0 255 255
-0.473712 0.275375 0.047602 0 255 255
-0.464247 0.271828 0.046736 0 255 255
-0.463391 0.273285 0.046736 0 255 255
-0.46253 0.274739 0.046736 0 255 255
-0.461665 0.276191 0.046736 0 255 255
-0.469328 0.282782 0.047602 0 255 255
-0.468437 0.284255 0.047602 0 255 255
-0.467542 0.285725 0.047602 0 255 255
-0.466642 0.287192 0.047602 0 255 255
-0.465737 0.288657 0.047602 0 255 255
-0.47328 0.295393 0.048467 0 255 255
-0.472401 0.296796 0.048467 0 255 255
-0.463047 0.292953 0.047602 0 255 255
-0.470527 0.299759 0.048467 0 255 255
-0.469583 0.301235 0.048467 0 255 255
-0.477003 0.308115 0.049333 0 255 255
-0.459329 0.298748 0.047602 0 255 255
-0.466723 0.305648 0.048467 0 255 255
-0.46576 0.307112 0.048467 0 255 255
-0.456494 0.303064 0.047602 0 255 255
-0.517974 0.301226 0.031084 0 255 255
-0.508408 0.297804 0.030566 0 255 255
-0.516071 0.304474 0.031084 0 255 255
-0.523697 0.311196 0.031602 0 255 255
-0.522717 0.312839 0.031602 0 255 255
-0.513178 0.309325 0.031084 0 255 255
-0.512204 0.310935 0.031084 0 255 255
-0.511225 0.312543 0.031084 0 255 255
-0.518744 0.319383 0.031602 0 255 255
-0.509251 0.315749 0.031084 0 255 255
-0.516727 0.322636 0.031602 0 255 255
-0.498857 0.31354 0.030566 0 255 255
-0.506308 0.320446 0.031084 0 255 255
-0.496877 0.316668 0.030566 0 255 255
-0.504285 0.323621 0.031084 0 255 255
-0.48649 0.314363 0.030048 0 255 255
-0.4855 0.31589 0.030048 0 255 255
-0.484505 0.317414 0.030048 0 255 255
-0.491842 0.324433 0.030566 0 255 255
-0.474183 0.314927 0.029529 0 255 255
-0.473191 0.316415 0.029529 0 255 255
-0.447342 0.301168 0.027975 0 255 255
-0.438127 0.296969 0.027457 0 255 255
