ply
format ascii 1.0
element vertex 1258
property float x
property float y
property float z
property uchar red
property uchar green
property uchar blue
end_header
1.84224 0.712341 -0.314176 0 255 255
1.84447 0.70655 -0.314176 0 255 255
1.84668 0.700752 -0.314176 0 255 255
1.83039 0.687997 -0.311034 0 255 255
1.85105 0.689135 -0.314176 0 255 255
1.85321 0.683316 -0.314176 0 255 255
1.82751 0.667329 -0.309463 0 255 255
1.8296 0.661584 -0.309463 0 255 255
1.84097 0.659162 -0.311034 0 255 255
1.83372 0.650076 -0.309463 0 255 255
1.84507 0.647582 -0.311034 0 255 255
1.83777 0.638541 -0.309463 0 255 255
1.83043 0.629552 -0.307892 0 255 255
1.8324 0.623799 -0.307892 0 255 255
1.83435 0.618039 -0.307892 0 255 255
1.83628 0.612273 -0.307892 0 255 255
1.84757 0.609596 -0.309463 0 255 255
1.8307 0.597658 -0.306321 0 255 255
1.85126 0.598298 -0.309463 0 255 255
1.84383 0.58915 -0.307892 0 255 255
1.83625 0.580378 -0.306321 0 255 255
1.83807 0.574607 -0.306321 0 255 255
1.83043 0.565912 -0.30475 0 255 255
1.84164 0.563047 -0.306321 0 255 255
1.82449 0.551543 -0.303179 0 255 255
1.83568 0.548636 -0.30475 0 255 255
1.8374 0.542867 -0.30475 0 255 255
1.83909 0.537091 -0.30475 0 255 255
1.84068 0.531632 -0.30475 0 255 255
1.83284 0.523137 -0.303179 0 255 255
1.85358 0.522414 -0.306321 0 255 255
1.83618 0.51129 -0.303179 0 255 255
1.82826 0.502899 -0.301609 0 255 255
1.83936 0.499743 -0.303179 0 255 255
1.84092 0.493962 -0.303179 0 255 255
1.83292 0.485646 -0.301609 0 255 255
1.83443 0.479886 -0.301609 0 255 255
1.83593 0.47412 -0.301609 0 255 255
1.82784 0.465911 -0.300038 0 255 255
1.83887 0.462576 -0.301609 0 255 255
1.83065 0.454737 -0.300038 0 255 255
1.84174 0.451012 -0.301609 0 255 255
1.86235 0.449862 -0.30475 0 255 255
1.88297 0.448587 -0.307892 0 255 255
1.9036 0.447186 -0.311034 0 255 255
1.89537 0.438975 -0.309463 0 255 255
1.90637 0.435216 -0.311034 0 255 255
1.89809 0.427057 -0.309463 0 255 255
1.88007 0.417145 -0.306321 0 255 255
1.91031 0.417564 -0.311034 0 255 255
1.90196 0.409481 -0.309463 0 255 255
1.90331 0.403172 -0.309463 0 255 255
1.90457 0.397191 -0.309463 0 255 255
1.90587 0.390873 -0.309463 0 255 255
1.89734 0.383261 -0.307892 0 255 255
1.86948 0.371523 -0.303179 0 255 255
1.89002 0.369437 -0.306321 0 255 255
1.88147 0.361634 -0.30475 0 255 255
1.86313 0.352379 -0.301609 0 255 255
1.83516 0.34079 -0.296896 0 255 255
1.84594 0.336795 -0.298467 0 255 255
1.84699 0.330995 -0.298467 0 255 255
1.83829 0.323479 -0.296896 0 255 255
1.84903 0.319383 -0.298467 0 255 255
1.84029 0.311922 -0.296896 0 255 255
1.83152 0.304519 -0.295325 0 255 255
1.83246 0.298764 -0.295325 0 255 255
1.83339 0.293006 -0.295325 0 255 255
1.83431 0.287244 -0.295325 0 255 255
1.8352 0.28148 -0.295325 0 255 255
1.84579 0.277502 -0.296896 0 255 255
1.84665 0.271702 -0.296896 0 255 255
1.8475 0.2659 -0.296896 0 255 255
1.83859 0.258397 -0.295325 0 255 255
1.83939 0.252619 -0.295325 0 255 255
1.83039 0.245527 -0.293754 0 255 255
1.84094 0.241058 -0.295325 0 255 255
1.85149 0.236525 -0.296896 0 255 255
1.87182 0.233148 -0.300038 0 255 255
1.84313 0.223696 -0.295325 0 255 255
1.8634 0.220548 -0.298467 0 255 255
1.88375 0.216625 -0.301609 0 255 255
1.86479 0.208511 -0.298467 0 255 255
1.87525 0.203718 -0.300038 0 255 255
1.8366 0.193682 -0.293754 0 255 255
1.89615 0.193941 -0.303179 0 255 255
1.84761 0.183113 -0.295325 0 255 255
1.89733 0.182024 -0.303179 0 255 255
1.86839 0.173325 -0.298467 0 255 255
1.8886 0.169217 -0.301609 0 255 255
1.87928 0.162433 -0.300038 0 255 255
1.88962 0.157348 -0.301609 0 255 255
1.89011 0.15141 -0.301609 0 255 255
1.87088 0.143956 -0.298467 0 255 255
1.84178 0.135897 -0.293754 0 255 255
1.83234 0.129416 -0.292183 0 255 255
1.85245 0.124988 -0.295325 0 255 255
1.84298 0.118533 -0.293754 0 255 255
1.8532 0.113346 -0.295325 0 255 255
1.84368 0.106952 -0.293754 0 255 255
1.84401 0.10116 -0.293754 0 255 255
1.84432 0.095366 -0.293754 0 255 255
1.83475 0.089092 -0.292183 0 255 255
1.83502 0.083328 -0.292183 0 255 255
1.83527 0.077563 -0.292183 0 255 255
1.8355 0.071797 -0.292183 0 255 255
1.83572 0.06603 -0.292183 0 255 255
1.84579 0.060586 -0.293754 0 255 255
1.82623 0.054201 -0.290612 0 255 255
1.83626 0.048726 -0.292183 0 255 255
1.83641 0.042957 -0.292183 0 255 255
1.83653 0.037187 -0.292183 0 255 255
1.84651 0.031586 -0.293754 0 255 255
1.85648 0.025923 -0.295325 0 255 255
1.88618 0.020411 -0.300038 0 255 255
1.87636 0.014409 -0.298467 0 255 255
1.87639 0.008515 -0.298467 0 255 255
1.86653 0.002606 -0.296896 0 255 255
1.88628 -0.003292 -0.300038 0 255 255
1.86651 -0.009122 -0.296896 0 255 255
1.88623 -0.014815 -0.300038 0 255 255
1.88617 -0.02107 -0.300038 0 255 255
1.88609 -0.027324 -0.300038 0 255 255
1.89587 -0.033423 -0.301609 0 255 255
1.85626 -0.038235 -0.295325 0 255 255
1.88575 -0.04477 -0.300038 0 255 255
1.86585 -0.050488 -0.296896 0 255 255
1.88543 -0.056946 -0.300038 0 255 255
1.86551 -0.061885 -0.296896 0 255 255
1.88504 -0.068463 -0.300038 0 255 255
1.84535 -0.072826 -0.293754 0 255 255
1.83524 -0.078203 -0.292183 0 255 255
1.84485 -0.08442 -0.293754 0 255 255
1.81499 -0.088768 -0.289041 0 255 255
1.83442 -0.095496 -0.292183 0 255 255
1.82425 -0.100714 -0.290612 0 255 255
1.82393 -0.106445 -0.290612 0 255 255
1.8433 -0.113387 -0.293754 0 255 255
1.83308 -0.11854 -0.292183 0 255 255
1.8327 -0.124298 -0.292183 0 255 255
1.84215 -0.130754 -0.293754 0 255 255
1.83188 -0.135811 -0.292183 0 255 255
1.84129 -0.142326 -0.293754 0 255 255
1.83099 -0.147318 -0.292183 0 255 255
1.83052 -0.153069 -0.292183 0 255 255
1.83984 -0.159994 -0.293754 0 255 255
1.82949 -0.164887 -0.292183 0 255 255
1.82896 -0.170634 -0.292183 0 255 255
1.82845 -0.17606 -0.292183 0 255 255
1.81806 -0.180826 -0.290612 0 255 255
1.85675 -0.190894 -0.296896 0 255 255
1.86596 -0.197767 -0.298467 0 255 255
1.86537 -0.203302 -0.298467 0 255 255
1.87449 -0.21059 -0.300038 0 255 255
1.84439 -0.213077 -0.295325 0 255 255
1.88294 -0.223527 -0.301609 0 255 255
1.85282 -0.225857 -0.296896 0 255 255
1.8913 -0.236579 -0.303179 0 255 255
1.86116 -0.23875 -0.298467 0 255 255
1.87019 -0.245883 -0.300038 0 255 255
1.8792 -0.253076 -0.301609 0 255 255
1.88818 -0.260327 -0.303179 0 255 255
1.87757 -0.264878 -0.301609 0 255 255
1.87673 -0.270775 -0.301609 0 255 255
1.8661 -0.275229 -0.300038 0 255 255
1.85546 -0.279618 -0.298467 0 255 255
1.86433 -0.286948 -0.300038 0 255 255
1.83415 -0.288205 -0.295325 0 255 255
1.83324 -0.293966 -0.295325 0 255 255
1.83231 -0.299723 -0.295325 0 255 255
1.83136 -0.305478 -0.295325 0 255 255
1.82065 -0.309575 -0.293754 0 255 255
1.81967 -0.315293 -0.293754 0 255 255
1.81867 -0.321008 -0.293754 0 255 255
1.82732 -0.328786 -0.295325 0 255 255
1.82627 -0.334525 -0.295325 0 255 255
1.83498 -0.34175 -0.296896 0 255 255
1.8242 -0.345675 -0.295325 0 255 255
1.8134 -0.349535 -0.293754 0 255 255
1.82199 -0.35713 -0.295325 0 255 255
1.83054 -0.364782 -0.296896 0 255 255
1.81964 -0.368888 -0.295325 0 255 255
1.81848 -0.374603 -0.295325 0 255 255
1.82696 -0.382337 -0.296896 0 255 255
1.82575 -0.388074 -0.296896 0 255 255
1.81486 -0.391725 -0.295325 0 255 255
1.83292 -0.401652 -0.298467 0 255 255
1.86057 -0.413841 -0.303179 0 255 255
1.83036 -0.413161 -0.298467 0 255 255
1.84831 -0.423318 -0.301609 0 255 255
1.87583 -0.435828 -0.306321 0 255 255
1.82638 -0.430393 -0.298467 0 255 255
1.87305 -0.447606 -0.306321 0 255 255
1.86204 -0.451162 -0.30475 0 255 255
1.83184 -0.449942 -0.300038 0 255 255
1.86875 -0.465238 -0.306321 0 255 255
1.86728 -0.471107 -0.306321 0 255 255
1.86579 -0.476971 -0.306321 0 255 255
1.85464 -0.480678 -0.30475 0 255 255
1.87222 -0.491517 -0.307892 0 255 255
1.83258 -0.486926 -0.301609 0 255 255
1.83104 -0.492681 -0.301609 0 255 255
1.80089 -0.490643 -0.296896 0 255 255
1.83734 -0.507122 -0.303179 0 255 255
1.81671 -0.507577 -0.300038 0 255 255
1.82461 -0.515969 -0.301609 0 255 255
1.81349 -0.518982 -0.300038 0 255 255
1.82133 -0.527423 -0.301609 0 255 255
1.81028 -0.53005 -0.300038 0 255 255
1.80851 -0.53605 -0.300038 0 255 255
1.81628 -0.544565 -0.301609 0 255 255
1.82401 -0.553135 -0.303179 0 255 255
1.81282 -0.555966 -0.301609 0 255 255
1.81107 -0.561659 -0.301609 0 255 255
1.79987 -0.564391 -0.300038 0 255 255
1.81692 -0.576012 -0.303179 0 255 255
1.8057 -0.578703 -0.301609 0 255 255
1.80387 -0.584372 -0.301609 0 255 255
1.80202 -0.590037 -0.301609 0 255 255
1.80954 -0.598798 -0.303179 0 255 255
1.79828 -0.601347 -0.301609 0 255 255
1.79638 -0.606994 -0.301609 0 255 255
1.79436 -0.612948 -0.301609 0 255 255
1.80176 -0.621803 -0.303179 0 255 255
1.79047 -0.62421 -0.301609 0 255 255
1.79782 -0.633112 -0.303179 0 255 255
1.79582 -0.638757 -0.303179 0 255 255
1.79381 -0.644395 -0.303179 0 255 255
1.80106 -0.653396 -0.30475 0 255 255
1.78972 -0.655653 -0.303179 0 255 255
1.79692 -0.664699 -0.30475 0 255 255
1.78557 -0.666885 -0.303179 0 255 255
1.80194 -0.679461 -0.306321 0 255 255
1.7998 -0.685118 -0.306321 0 255 255
1.78842 -0.687227 -0.30475 0 255 255
1.79546 -0.696413 -0.306321 0 255 255
1.79326 -0.70205 -0.306321 0 255 255
1.80011 -0.711624 -0.307892 0 255 255
1.78869 -0.713616 -0.306321 0 255 255
1.7956 -0.72292 -0.307892 0 255 255
1.79345 -0.728244 -0.307892 0 255 255
1.8093 -0.741679 -0.311034 0 255 255
1.79784 -0.743585 -0.309463 0 255 255
1.79549 -0.74923 -0.309463 0 255 255
1.79313 -0.754867 -0.309463 0 255 255
1.79984 -0.764357 -0.311034 0 255 255
1.80651 -0.773896 -0.312605 0 255 255
1.80407 -0.779568 -0.312605 0 255 255
1.79255 -0.781285 -0.311034 0 255 255
1.79009 -0.786913 -0.311034 0 255 255
1.79664 -0.796536 -0.312605 0 255 255
1.80314 -0.806207 -0.314176 0 255 255
1.8096 -0.815927 -0.315746 0 255 255
1.78891 -0.813745 -0.312605 0 255 255
3.29441 -1.51108 -0.576512 0 255 255
3.28069 -1.51728 -0.574941 0 255 255
3.2938 -1.53593 -0.578083 0 255 255
3.27109 -1.53786 -0.574941 0 255 255
3.26624 -1.54813 -0.574941 0 255 255
3.27027 -1.56264 -0.576512 0 255 255
3.26535 -1.57291 -0.576512 0 255 255
3.21597 -1.56159 -0.568658 0 255 255
3.03364 -1.48485 -0.53724 0 255 255
2.91383 -1.43757 -0.516819 0 255 255
2.88277 -1.43353 -0.512106 0 255 255
3.22479 -1.65447 -0.576512 0 255 255
3.2108 -1.66006 -0.574941 0 255 255
3.2228 -1.67983 -0.578083 0 255 255
3.20876 -1.68535 -0.576512 0 255 255
3.18599 -1.68618 -0.57337 0 255 255
3.20682 -1.71012 -0.578083 0 255 255
3.20143 -1.72019 -0.578083 0 255 255
3.18733 -1.72554 -0.576512 0 255 255
3.19056 -1.74027 -0.578083 0 255 255
3.24566 -1.78358 -0.589079 0 255 255
3.24868 -1.79855 -0.59065 0 255 255
3.23439 -1.80394 -0.589079 0 255 255
6.39715 -3.59432 -1.16716 0 255 255
5.52636 -3.12794 -1.01007 0 255 255
5.44787 -3.10615 -0.997507 0 255 255
5.36958 -3.0839 -0.98494 0 255 255
5.74851 -3.37533 -1.06034 0 255 255
5.59337 -3.30791 -1.03364 0 255 255
5.57446 -3.32041 -1.03207 0 255 255
5.47931 -3.2871 -1.01636 0 255 255
5.37598 -3.24812 -0.999078 0 255 255
5.332 -3.24446 -0.992795 0 255 255
5.16023 -3.18454 -0.964519 0 255 255
5.10771 -3.17556 -0.956664 0 255 255
4.65376 -2.93289 -0.874979 0 255 255
4.49999 -2.91675 -0.852987 0 255 255
4.44759 -2.94268 -0.848274 0 255 255
4.38079 -2.91831 -0.837278 0 255 255
4.34699 -2.91556 -0.832565 0 255 255
4.33562 -2.96755 -0.835707 0 255 255
4.22869 -2.91391 -0.816856 0 255 255
4.86056 -3.37189 -0.940956 0 255 255
3.91828 -2.75484 -0.761876 0 255 255
4.1404 -2.9708 -0.810573 0 255 255
4.12304 -2.97801 -0.809002 0 255 255
4.12165 -2.99675 -0.810573 0 255 255
4.08831 -2.99219 -0.80586 0 255 255
4.07889 -3.00502 -0.80586 0 255 255
4.04563 -3.00017 -0.801148 0 255 255
4.0441 -3.01877 -0.802718 0 255 255
4.0267 -3.02553 -0.801148 0 255 255
4.00877 -3.03291 -0.799577 0 255 255
3.99922 -3.04549 -0.799577 0 255 255
4.00531 -3.07005 -0.802718 0 255 255
3.98783 -3.07659 -0.801148 0 255 255
3.98594 -3.09516 -0.802718 0 255 255
3.96842 -3.10158 -0.801148 0 255 255
3.95866 -3.11403 -0.801148 0 255 255
3.94885 -3.12646 -0.801148 0 255 255
3.93074 -3.13338 -0.799577 0 255 255
3.93628 -3.15807 -0.802718 0 255 255
3.93403 -3.17663 -0.804289 0 255 255
3.93169 -3.1952 -0.80586 0 255 255
3.93692 -3.22004 -0.809002 0 255 255
3.93498 -3.23798 -0.810573 0 255 255
3.93943 -3.26361 -0.813715 0 255 255
3.92157 -3.26965 -0.812144 0 255 255
3.91884 -3.2883 -0.813715 0 255 255
3.91604 -3.30697 -0.815286 0 255 255
3.90563 -3.31925 -0.815286 0 255 255
3.90269 -3.33793 -0.816856 0 255 255
3.89967 -3.35661 -0.818427 0 255 255
3.88911 -3.36885 -0.818427 0 255 255
3.89339 -3.39403 -0.821569 0 255 255
3.88271 -3.40624 -0.821569 0 255 255
3.95282 -3.49101 -0.838849 0 255 255
3.96397 -3.52309 -0.843561 0 255 255
3.99705 -3.57503 -0.852987 0 255 255
4.00048 -3.60079 -0.856128 0 255 255
3.96719 -3.59345 -0.851416 0 255 255
3.97778 -3.62585 -0.856128 0 255 255
3.95909 -3.63165 -0.854557 0 255 255
3.94766 -3.64407 -0.854557 0 255 255
3.85254 -3.60137 -0.838849 0 255 255
3.79024 -3.56675 -0.827853 0 255 255
3.79335 -3.59222 -0.830994 0 255 255
3.83039 -3.69639 -0.846703 0 255 255
3.83293 -3.72216 -0.849845 0 255 255
3.8636 -3.7756 -0.85927 0 255 255
3.85172 -3.78772 -0.85927 0 255 255
3.82576 -3.78591 -0.856128 0 255 255
3.81319 -3.79857 -0.856128 0 255 255
3.80123 -3.81053 -0.856128 0 255 255
3.74819 -3.77972 -0.846703 0 255 255
3.64553 -3.70067 -0.826282 0 255 255
3.65462 -3.73327 -0.830994 0 255 255
3.61532 -3.71642 -0.824711 0 255 255
3.59677 -3.72066 -0.82314 0 255 255
3.5665 -3.73604 -0.821569 0 255 255
3.58193 -3.77589 -0.827853 0 255 255
3.5836 -3.8015 -0.830994 0 255 255
3.54463 -3.7839 -0.824711 0 255 255
3.50581 -3.76611 -0.818427 0 255 255
3.4933 -3.77771 -0.818427 0 255 255
3.46805 -3.77412 -0.815286 0 255 255
3.45618 -3.785 -0.815286 0 255 255
3.43764 -3.78853 -0.813715 0 255 255
3.41249 -3.78464 -0.810573 0 255 255
3.40058 -3.79534 -0.810573 0 255 255
3.39521 -3.81338 -0.812144 0 255 255
3.38321 -3.82403 -0.812144 0 255 255
3.364 -3.82781 -0.810573 0 255 255
3.34546 -3.83092 -0.809002 0 255 255
3.31979 -3.82707 -0.80586 0 255 255
3.30197 -3.82942 -0.804289 0 255 255
3.29635 -3.84728 -0.80586 0 255 255
3.27145 -3.84258 -0.802718 0 255 255
3.26574 -3.86037 -0.804289 0 255 255
3.24724 -3.86305 -0.802718 0 255 255
3.22875 -3.86566 -0.801148 0 255 255
3.20398 -3.86058 -0.798006 0 255 255
3.01066 -3.67438 -0.755592 0 255 255
2.89249 -3.55413 -0.728887 0 255 255
3.14845 -3.91868 -0.799577 0 255 255
3.11764 -3.9054 -0.794864 0 255 255
3.11149 -3.92291 -0.796435 0 255 255
3.10526 -3.94042 -0.798006 0 255 255
3.08678 -3.94238 -0.796435 0 255 255
3.08044 -3.95986 -0.798006 0 255 255
3.06195 -3.9617 -0.796435 0 255 255
3.04347 -3.96347 -0.794864 0 255 255
3.0363 -3.98139 -0.796435 0 255 255
3.02974 -3.99878 -0.798006 0 255 255
3.02904 -4.02406 -0.801148 0 255 255
3.00456 -4.01774 -0.798006 0 255 255
3.0037 -4.04301 -0.801148 0 255 255
3.002 -4.06884 -0.804289 0 255 255
3.00672 -4.10215 -0.809002 0 255 255
2.98291 -4.09509 -0.80586 0 255 255
2.98161 -4.12044 -0.809002 0 255 255
2.98018 -4.14583 -0.812144 0 255 255
2.97789 -4.17176 -0.815286 0 255 255
2.99904 -4.22943 -0.824711 0 255 255
3.03692 -4.3115 -0.838849 0 255 255
3.04035 -4.34529 -0.843561 0 255 255
3.07177 -4.4197 -0.856128 0 255 255
3.03543 -4.39682 -0.849845 0 255 255
2.96883 -4.35867 -0.838849 0 255 255
2.90456 -4.29487 -0.824711 0 255 255
2.91308 -4.33676 -0.830994 0 255 255
3.0241 -4.59501 -0.874979 0 255 255
2.99884 -4.58795 -0.871837 0 255 255
2.98979 -4.60564 -0.873408 0 255 255
2.96996 -4.60671 -0.871837 0 255 255
2.95999 -4.62485 -0.873408 0 255 255
2.4303 -3.98929 -0.743025 0 255 255
2.33597 -3.86171 -0.717891 0 255 255
2.36959 -3.94522 -0.732029 0 255 255
3.08341 -5.56262 -1.01164 0 255 255
3.04212 -5.52902 -1.00379 0 255 255
2.70445 -5.02692 -0.907967 0 255 255
2.65609 -4.97441 -0.896971 0 255 255
2.66819 -5.03509 -0.906396 0 255 255
3.37104 -6.46193 -1.15931 0 255 255
3.2917 -6.35847 -1.13889 0 255 255
3.30329 -6.43027 -1.14988 0 255 255
3.28756 -6.44942 -1.15145 0 255 255
2.62797 -5.2778 -0.937814 0 255 255
2.57638 -5.2152 -0.925247 0 255 255
2.74297 -5.7819 -1.01793 0 255 255
2.69536 -5.72793 -1.00693 0 255 255
1.63874 -3.54006 -0.620497 0 255 255
1.62761 -3.54519 -0.620497 0 255 255
1.62056 -3.55927 -0.622068 0 255 255
1.60874 -3.56463 -0.622068 0 255 255
1.59754 -3.56966 -0.622068 0 255 255
1.5783 -3.55661 -0.618926 0 255 255
1.56712 -3.56155 -0.618926 0 255 255
1.55198 -3.55741 -0.617355 0 255 255
1.54017 -3.56253 -0.617355 0 255 255
1.52897 -3.56735 -0.617355 0 255 255
1.51389 -3.56305 -0.615784 0 255 255
1.49886 -3.55869 -0.614213 0 255 255
1.48387 -3.55427 -0.612642 0 255 255
1.47647 -3.56804 -0.614213 0 255 255
1.46151 -3.56352 -0.612642 0 255 255
1.44659 -3.55894 -0.611071 0 255 255
1.43171 -3.55431 -0.609501 0 255 255
1.42357 -3.56821 -0.611071 0 255 255
1.40872 -3.56348 -0.609501 0 255 255
1.39752 -3.56789 -0.609501 0 255 255
1.38631 -3.57226 -0.609501 0 255 255
1.37153 -3.56738 -0.60793 0 255 255
1.36032 -3.57167 -0.60793 0 255 255
1.34909 -3.57593 -0.60793 0 255 255
1.33439 -3.5709 -0.606359 0 255 255
1.32597 -3.58457 -0.60793 0 255 255
1.31131 -3.57944 -0.606359 0 255 255
1.29669 -3.57426 -0.604788 0 255 255
1.28545 -3.57832 -0.604788 0 255 255
1.27358 -3.58256 -0.604788 0 255 255
1.26232 -3.58654 -0.604788 0 255 255
1.24717 -3.58138 -0.603217 0 255 255
1.23654 -3.58507 -0.603217 0 255 255
1.22208 -3.57959 -0.601646 0 255 255
1.21083 -3.58341 -0.601646 0 255 255
1.19956 -3.58719 -0.601646 0 255 255
1.18518 -3.58157 -0.600075 0 255 255
1.17393 -3.58528 -0.600075 0 255 255
1.15961 -3.57955 -0.598504 0 255 255
1.14836 -3.58318 -0.598504 0 255 255
1.1371 -3.58677 -0.598504 0 255 255
1.12225 -3.58109 -0.596933 0 255 255
1.10807 -3.57517 -0.595363 0 255 255
1.09972 -3.58807 -0.596933 0 255 255
1.08845 -3.59151 -0.596933 0 255 255
1.07716 -3.59491 -0.596933 0 255 255
1.06305 -3.58881 -0.595363 0 255 255
1.04837 -3.58284 -0.593792 0 255 255
1.03711 -3.58611 -0.593792 0 255 255
1.02584 -3.58935 -0.593792 0 255 255
1.01724 -3.60206 -0.595363 0 255 255
1.00327 -3.59573 -0.593792 0 255 255
0.991967 -3.59886 -0.593792 0 255 255
0.977435 -3.5926 -0.592221 0 255 255
0.968707 -3.60519 -0.593792 0 255 255
0.956746 -3.60839 -0.593792 0 255 255
0.943533 -3.60166 -0.592221 0 255 255
0.932213 -3.6046 -0.592221 0 255 255
0.918442 -3.59794 -0.59065 0 255 255
0.907134 -3.60081 -0.59065 0 255 255
0.895818 -3.60364 -0.59065 0 255 255
0.883862 -3.60659 -0.59065 0 255 255
0.870207 -3.59975 -0.589079 0 255 255
0.858894 -3.60247 -0.589079 0 255 255
0.848201 -3.605 -0.589079 0 255 255
0.836242 -3.6078 -0.589079 0 255 255
0.822704 -3.60078 -0.587508 0 255 255
0.830012 -3.74085 -0.609501 0 255 255
0.841454 -3.84957 -0.62678 0 255 255
0.837671 -3.89081 -0.633064 0 255 255
0.845229 -3.99019 -0.648772 0 255 255
0.852851 -4.0895 -0.664481 0 255 255
0.855886 -4.16955 -0.677048 0 255 255
0.862337 -4.26902 -0.692757 0 255 255
0.864321 -4.3492 -0.705324 0 255 255
0.869599 -4.44882 -0.721033 0 255 255
0.876123 -4.55821 -0.738312 0 255 255
1.3202 -6.98698 -1.13103 0 255 255
1.29825 -6.99109 -1.13103 0 255 255
1.27329 -6.98564 -1.12946 0 255 255
1.25133 -6.9896 -1.12946 0 255 255
1.22937 -6.9935 -1.12946 0 255 255
1.20739 -6.99733 -1.12946 0 255 255
1.1854 -7.00109 -1.12946 0 255 255
1.16178 -6.99504 -1.12789 0 255 255
1.1398 -6.99865 -1.12789 0 255 255
1.11503 -6.99264 -1.12632 0 255 255
1.09458 -7.00587 -1.12789 0 255 255
1.07108 -6.99951 -1.12632 0 255 255
1.04762 -6.99307 -1.12475 0 255 255
1.02421 -6.98656 -1.12318 0 255 255
0.309961 -2.31996 -0.372298 0 255 255
0.875187 -7.05654 -1.13103 0 255 255
0.631202 -5.36509 -0.85927 0 255 255
0.616772 -5.39658 -0.863983 0 255 255
0.599815 -5.3985 -0.863983 0 255 255
0.582967 -5.41027 -0.865554 0 255 255
0.565883 -5.40216 -0.863983 0 255 255
0.548909 -5.40391 -0.863983 0 255 255
0.531929 -5.40561 -0.863983 0 255 255
0.514945 -5.40725 -0.863983 0 255 255
0.49886 -5.41868 -0.865554 0 255 255
0.592019 -6.65969 -1.06348 0 255 255
0.229449 -2.67641 -0.427279 0 255 255
0.361675 -4.38975 -0.700611 0 255 255
0.287822 -3.6328 -0.579654 0 255 255
0.279404 -3.67308 -0.585937 0 255 255
0.267863 -3.67394 -0.585937 0 255 255
0.255679 -3.67481 -0.585937 0 255 255
0.244133 -3.67559 -0.585937 0 255 255
0.308324 -5.41306 -0.862412 0 255 255
0.29344 -5.45345 -0.868695 0 255 255
0.336498 -7.08287 -1.12789 0 255 255
0.030058 -1.05629 -0.168084 0 255 255
0.02624 -1.03663 -0.164942 0 255 255
0.022764 -1.02684 -0.163371 0 255 255
0.018987 -1.00716 -0.16023 0 255 255
0.016133 -1.02696 -0.163371 0 255 255
0.012534 -0.997382 -0.158659 0 255 255
0.009308 -0.987541 -0.157088 0 255 255
0.006205 -0.987565 -0.157088 0 255 255
0.003165 -1.00733 -0.16023 0 255 255
-0.000174 -0.99746 -0.158659 0 255 255
-0.003373 -1.01721 -0.1618 0 255 255
-0.006505 -1.00732 -0.16023 0 255 255
-0.00948 -0.987539 -0.157088 0 255 255
-0.01296 -1.01713 -0.1618 0 255 255
-0.015841 -0.997335 -0.158659 0 255 255
-0.01935 -1.01703 -0.1618 0 255 255
-0.022327 -1.00709 -0.16023 0 255 255
-0.02499 -0.987268 -0.157088 0 255 255
-0.028935 -1.0168 -0.1618 0 255 255
-0.031193 -0.987092 -0.157088 0 255 255
-0.035323 -1.0166 -0.1618 0 255 255
-0.037942 -0.996739 -0.158659 0 255 255
-0.041887 -1.01635 -0.1618 0 255 255
-0.044378 -0.996473 -0.158659 0 255 255
-0.047803 -1.0062 -0.16023 0 255 255
-0.05114 -1.00604 -0.16023 0 255 255
-0.0543 -1.00587 -0.16023 0 255 255
-0.05746 -1.0057 -0.16023 0 255 255
-0.061213 -1.01537 -0.1618 0 255 255
-0.063152 -0.995459 -0.158659 0 255 255
-0.066936 -1.00511 -0.16023 0 255 255
-0.070268 -1.00488 -0.16023 0 255 255
-0.074145 -1.01451 -0.1618 0 255 255
-0.077331 -1.01427 -0.1618 0 255 255
-0.080518 -1.01402 -0.1618 0 255 255
-0.08289 -1.00392 -0.16023 0 255 255
-0.0852 -0.993815 -0.158659 0 255 255
-0.090071 -1.01322 -0.1618 0 255 255
-0.093253 -1.01293 -0.1618 0 255 255
-0.095499 -1.0028 -0.16023 0 255 255
-0.098649 -1.00249 -0.16023 0 255 255
-0.101973 -1.00216 -0.16023 0 255 255
-0.10512 -1.00184 -0.16023 0 255 255
-0.109329 -1.01132 -0.1618 0 255 255
-0.110321 -0.991341 -0.158659 0 255 255
-0.116982 -1.0204 -0.163371 0 255 255
-0.119031 -1.01022 -0.1618 0 255 255
-0.124757 -1.02943 -0.164942 0 255 255
-0.126594 -1.01926 -0.163371 0 255 255
-0.127299 -0.99926 -0.16023 0 255 255
-0.132995 -1.01844 -0.163371 0 255 255
-0.134885 -1.00823 -0.1618 0 255 255
-0.139392 -1.01759 -0.163371 0 255 255
-0.139846 -0.997582 -0.16023 0 255 255
-0.144381 -1.00691 -0.1618 0 255 255
-0.144851 -0.986887 -0.158659 0 255 255
-0.149416 -0.996193 -0.16023 0 255 255
-0.157031 -1.025 -0.164942 0 255 255
-0.154145 -0.985478 -0.158659 0 255 255
-0.163468 -1.024 -0.164942 0 255 255
-0.161922 -0.994237 -0.16023 0 255 255
-0.169899 -1.02295 -0.164942 0 255 255
-0.169814 -1.00294 -0.1618 0 255 255
-0.17482 -1.0121 -0.163371 0 255 255
-0.177999 -1.01155 -0.163371 0 255 255
-0.182918 -1.0207 -0.164942 0 255 255
-0.186124 -1.02012 -0.164942 0 255 255
-0.187524 -1.00982 -0.163371 0 255 255
-0.188862 -0.999526 -0.1618 0 255 255
-0.193866 -1.00863 -0.163371 0 255 255
-0.200823 -1.0274 -0.166513 0 255 255
-0.198274 -0.997701 -0.1618 0 255 255
-0.207453 -1.02608 -0.166513 0 255 255
-0.2067 -1.00607 -0.163371 0 255 255
-0.211878 -1.01509 -0.164942 0 255 255
-0.217114 -1.02408 -0.166513 0 255 255
-0.216173 -1.00408 -0.163371 0 255 255
-0.225653 -1.03234 -0.168084 0 255 255
-0.222478 -1.0027 -0.163371 0 255 255
-0.234304 -1.04054 -0.169655 0 255 255
-0.230973 -1.01091 -0.164942 0 255 255
-0.238608 -1.02942 -0.168084 0 255 255
-0.23506 -0.999828 -0.163371 0 255 255
-0.240666 -1.00865 -0.164942 0 255 255
-0.243834 -1.00789 -0.164942 0 255 255
-0.254056 -1.03589 -0.169655 0 255 255
-0.252544 -1.01592 -0.166513 0 255 255
-0.258147 -1.0247 -0.168084 0 255 255
-0.261365 -1.02388 -0.168084 0 255 255
-0.262108 -1.01349 -0.166513 0 255 255
-0.270296 -1.03177 -0.169655 0 255 255
-0.266113 -1.00224 -0.164942 0 255 255
-0.279518 -1.03954 -0.171226 0 255 255
-0.274999 -1.01007 -0.166513 0 255 255
-0.283419 -1.02825 -0.169655 0 255 255
-0.283994 -1.01784 -0.168084 0 255 255
-0.290054 -1.02639 -0.169655 0 255 255
-0.290561 -1.01598 -0.168084 0 255 255
-0.301805 -1.04358 -0.172797 0 255 255
-0.296762 -1.01419 -0.168084 0 255 255
-0.305553 -1.03219 -0.171226 0 255 255
-0.30047 -1.00279 -0.166513 0 255 255
-0.303619 -1.00184 -0.166513 0 255 255
-0.318341 -1.03865 -0.172797 0 255 255
-0.315755 -1.01878 -0.169655 0 255 255
-0.325042 -1.03658 -0.172797 0 255 255
-0.325312 -1.02613 -0.171226 0 255 255
-0.32552 -1.0157 -0.169655 0 255 255
-0.334797 -1.03347 -0.172797 0 255 255
-0.334969 -1.02302 -0.171226 0 255 255
-0.344386 -1.04072 -0.174367 0 255 255
-0.344702 -1.03021 -0.172797 0 255 255
-0.344773 -1.01976 -0.171226 0 255 255
-0.35436 -1.03736 -0.174367 0 255 255
-0.357618 -1.03625 -0.174367 0 255 255
-0.364122 -1.04444 -0.175938 0 255 255
-0.360841 -1.02466 -0.172797 0 255 255
-0.364058 -1.02352 -0.172797 0 255 255
-0.373949 -1.04096 -0.175938 0 255 255
-0.37385 -1.0305 -0.174367 0 255 255
-0.377265 -1.02926 -0.174367 0 255 255
-0.377069 -1.0188 -0.172797 0 255 255
-0.390456 -1.04543 -0.177509 0 255 255
-0.386949 -1.02565 -0.174367 0 255 255
-0.390169 -1.02443 -0.174367 0 255 255
-0.39693 -1.03242 -0.175938 0 255 255
-0.396598 -1.02196 -0.174367 0 255 255
-0.410612 -1.0483 -0.17908 0 255 255
-0.399381 -1.01026 -0.172797 0 255 255
-0.421034 -1.0548 -0.180651 0 255 255
-0.413276 -1.02599 -0.175938 0 255 255
-0.416497 -1.02468 -0.175938 0 255 255
-0.427209 -1.04164 -0.17908 0 255 255
-0.43048 -1.0403 -0.17908 0 255 255
-0.437551 -1.04805 -0.180651 0 255 255
-0.437189 -1.0375 -0.17908 0 255 255
-0.44431 -1.0452 -0.180651 0 255 255
-0.439807 -1.02565 -0.177509 0 255 255
-0.446947 -1.03333 -0.17908 0 255 255
-0.458089 -1.05002 -0.182222 0 255 255
-0.457408 -1.03954 -0.180651 0 255 255
-0.468684 -1.05615 -0.183793 0 255 255
-0.459897 -1.02763 -0.17908 0 255 255
-0.463123 -1.02618 -0.17908 0 255 255
-0.474708 -1.04262 -0.182222 0 255 255
-0.477981 -1.04112 -0.182222 0 255 255
-0.485215 -1.04866 -0.183793 0 255 255
-0.480336 -1.02915 -0.180651 0 255 255
-0.491977 -1.0455 -0.183793 0 255 255
-0.495259 -1.04395 -0.183793 0 255 255
-0.490014 -1.02457 -0.180651 0 255 255
-0.501809 -1.04082 -0.183793 0 255 255
-0.496442 -1.02147 -0.180651 0 255 255
-0.512683 -1.04652 -0.185364 0 255 255
-0.502851 -1.01833 -0.180651 0 255 255
-0.515028 -1.03434 -0.183793 0 255 255
-0.527135 -1.05037 -0.186934 0 255 255
-0.526156 -1.03981 -0.185364 0 255 255
-0.533907 -1.04695 -0.186934 0 255 255
-0.532679 -1.03648 -0.185364 0 255 255
-0.553913 -1.06998 -0.191647 0 255 255
-0.548136 -1.05072 -0.188505 0 255 255
-0.560625 -1.06648 -0.191647 0 255 255
-0.550104 -1.03853 -0.186934 0 255 255
-0.553364 -1.0368 -0.186934 0 255 255
-0.556799 -1.03495 -0.186934 0 255 255
-0.574167 -1.05925 -0.191647 0 255 255
-0.563471 -1.03134 -0.186934 0 255 255
-0.595093 -1.08158 -0.19636 0 255 255
-0.584308 -1.05369 -0.191647 0 255 255
-0.597249 -1.06909 -0.194789 0 255 255
-0.610292 -1.08442 -0.197931 0 255 255
-0.589342 -1.03954 -0.190076 0 255 255
-0.158503 -0.261926 -0.048697 0 255 255
-0.165312 -0.269342 -0.050268 0 255 255
-0.167001 -0.268298 -0.050268 0 255 255
-0.173955 -0.275595 -0.051839 0 255 255
-0.170406 -0.266149 -0.050268 0 255 255
-0.176592 -0.273912 -0.051839 0 255 255
-0.17831 -0.272797 -0.051839 0 255 255
-0.179166 -0.272236 -0.051839 0 255 255
-0.164473 -0.24643 -0.047126 0 255 255
-0.165246 -0.245912 -0.047126 0 255 255
-0.160484 -0.237212 -0.045555 0 255 255
-0.166788 -0.244869 -0.047126 0 255 255
-0.145216 -0.211765 -0.040843 0 255 255
-0.173934 -0.251944 -0.048697 0 255 255
-0.169131 -0.243257 -0.047126 0 255 255
-0.169894 -0.242724 -0.047126 0 255 255
-0.182033 -0.258335 -0.050268 0 255 255
-0.182844 -0.257762 -0.050268 0 255 255
-0.189392 -0.265224 -0.051839 0 255 255
-0.190224 -0.264627 -0.051839 0 255 255
-0.214212 -0.296032 -0.058122 0 255 255
-0.2384 -0.327288 -0.064406 0 255 255
-0.216068 -0.29468 -0.058122 0 255 255
-0.246316 -0.333729 -0.065977 0 255 255
-0.35346 -0.475587 -0.094253 0 255 255
-0.354952 -0.474474 -0.094253 0 255 255
-0.362381 -0.481246 -0.095824 0 255 255
-0.351961 -0.464364 -0.092682 0 255 255
-0.257576 -0.337627 -0.067548 0 255 255
-0.246606 -0.32115 -0.064406 0 255 255
-0.169102 -0.218792 -0.043985 0 255 255
-0.194044 -0.24944 -0.050268 0 255 255
-0.176561 -0.225501 -0.045555 0 255 255
-0.177269 -0.224945 -0.045555 0 255 255
-0.165701 -0.208912 -0.042414 0 255 255
-0.172518 -0.216109 -0.043985 0 255 255
-0.167046 -0.207838 -0.042414 0 255 255
-0.167698 -0.207312 -0.042414 0 255 255
-0.143408 -0.17615 -0.03613 0 255 255
-0.131443 -0.16042 -0.032988 0 255 255
-0.138755 -0.167191 -0.034559 0 255 255
-0.14561 -0.174334 -0.03613 0 255 255
-0.133448 -0.158756 -0.032988 0 255 255
-0.146733 -0.17339 -0.03613 0 255 255
-0.153681 -0.180446 -0.037701 0 255 255
-0.154247 -0.179963 -0.037701 0 255 255
-0.154811 -0.179477 -0.037701 0 255 255
-0.161848 -0.186448 -0.039272 0 255 255
-0.168931 -0.193376 -0.040843 0 255 255
-0.189099 -0.215096 -0.045555 0 255 255
-0.176686 -0.199707 -0.042414 0 255 255
-0.197014 -0.221279 -0.047126 0 255 255
-0.224113 -0.250041 -0.05341 0 255 255
-0.211668 -0.234669 -0.050268 0 255 255
-0.238955 -0.263254 -0.056552 0 255 255
-0.279744 -0.306252 -0.065977 0 255 255
-0.247288 -0.269018 -0.058122 0 255 255
-0.26825 -0.289989 -0.062835 0 255 255
-0.26916 -0.289144 -0.062835 0 255 255
-0.283571 -0.302712 -0.065977 0 255 255
-0.277746 -0.294634 -0.064406 0 255 255
-0.28552 -0.300875 -0.065977 0 255 255
-0.293284 -0.307119 -0.067548 0 255 255
-0.30109 -0.313317 -0.069119 0 255 255
-0.302073 -0.312369 -0.069119 0 255 255
-0.309941 -0.318496 -0.070689 0 255 255
-0.30403 -0.310465 -0.069119 0 255 255
-0.311936 -0.316543 -0.070689 0 255 255
-0.340744 -0.343611 -0.076973 0 255 255
-0.327928 -0.3285 -0.073831 0 255 255
-0.335957 -0.334436 -0.075402 0 255 255
-0.322964 -0.319488 -0.07226 0 255 255
-0.352137 -0.346165 -0.078544 0 255 255
-0.339094 -0.331255 -0.075402 0 255 255
-0.340133 -0.330188 -0.075402 0 255 255
-0.348276 -0.335974 -0.076973 0 255 255
-0.509614 -0.422039 -0.105249 0 255 255
-0.503383 -0.414073 -0.103678 0 255 255
-0.489388 -0.399989 -0.100536 0 255 255
-0.459977 -0.373547 -0.094253 0 255 255
-0.47652 -0.384503 -0.097394 0 255 255
-0.470021 -0.376827 -0.095824 0 255 255
-0.478927 -0.381502 -0.097394 0 255 255
-0.487867 -0.386124 -0.098965 0 255 255
-0.473551 -0.37238 -0.095824 0 255 255
-0.482501 -0.376971 -0.097394 0 255 255
-0.46808 -0.363342 -0.094253 0 255 255
-0.469219 -0.36187 -0.094253 0 255 255
-0.446836 -0.342374 -0.08954 0 255 255
-0.44791 -0.340969 -0.08954 0 255 255
-0.47373 -0.355945 -0.094253 0 255 255
-0.453417 -0.316661 -0.087969 0 255 255
-0.448285 -0.306718 -0.086398 0 255 255
-0.416574 -0.283103 -0.080115 0 255 255
-0.442018 -0.29837 -0.084827 0 255 255
-0.451156 -0.302479 -0.086398 0 255 255
-0.435664 -0.290112 -0.083257 0 255 255
-0.428336 -0.283294 -0.081686 0 255 255
-0.437478 -0.287369 -0.083257 0 255 255
-0.421836 -0.275201 -0.080115 0 255 255
-0.422699 -0.273875 -0.080115 0 255 255
-0.398687 -0.256444 -0.075402 0 255 255
-0.407813 -0.260507 -0.076973 0 255 255
-0.416969 -0.264514 -0.078544 0 255 255
-0.417798 -0.263203 -0.078544 0 255 255
-0.401878 -0.251414 -0.075402 0 255 255
-0.427832 -0.265784 -0.080115 0 255 255
-0.428665 -0.264439 -0.080115 0 255 255
-0.429494 -0.263091 -0.080115 0 255 255
-0.42188 -0.256608 -0.078544 0 255 255
-0.397323 -0.239965 -0.073831 0 255 255
-0.423484 -0.253952 -0.078544 0 255 255
-0.415795 -0.247568 -0.076973 0 255 255
-0.408069 -0.241235 -0.075402 0 255 255
-0.417342 -0.244951 -0.076973 0 255 255
-0.409576 -0.238666 -0.075402 0 255 255
-0.401776 -0.232433 -0.073831 0 255 255
-0.402504 -0.23117 -0.073831 0 255 255
-0.420387 -0.239687 -0.076973 0 255 255
-0.43837 -0.248018 -0.080115 0 255 255
-0.430537 -0.241804 -0.078544 0 255 255
-0.467528 -0.212474 -0.081686 0 255 255
-0.477197 -0.215062 -0.083257 0 255 255
-0.450821 -0.201473 -0.078544 0 255 255
-0.460481 -0.204057 -0.080115 0 255 255
-0.452078 -0.198637 -0.078544 0 255 255
-0.4527 -0.197215 -0.078544 0 255 255
-0.435184 -0.187961 -0.075402 0 255 255
-0.417615 -0.178818 -0.07226 0 255 255
-0.418206 -0.177432 -0.07226 0 255 255
-0.409658 -0.172288 -0.070689 0 255 255
-0.428428 -0.178601 -0.073831 0 255 255
-0.428987 -0.177254 -0.073831 0 255 255
-0.45696 -0.187133 -0.078544 0 255 255
-0.420942 -0.170841 -0.07226 0 255 255
-0.430639 -0.173203 -0.073831 0 255 255
-0.431181 -0.171849 -0.073831 0 255 255
-0.440904 -0.174121 -0.075402 0 255 255
-0.432252 -0.169137 -0.073831 0 255 255
-0.395949 -0.153499 -0.067548 0 255 255
-0.37799 -0.145173 -0.064406 0 255 255
-0.424596 -0.161544 -0.07226 0 255 255
-0.388136 -0.146278 -0.065977 0 255 255
-0.388594 -0.145058 -0.065977 0 255 255
-0.416837 -0.15411 -0.070689 0 255 255
-0.408045 -0.149404 -0.069119 0 255 255
-0.389944 -0.141389 -0.065977 0 255 255
-0.381115 -0.136759 -0.064406 0 255 255
-0.362931 -0.128949 -0.061264 0 255 255
-0.381967 -0.134362 -0.064406 0 255 255
-0.354408 -0.123418 -0.059693 0 255 255
-0.382804 -0.131959 -0.064406 0 255 255
-0.355176 -0.121189 -0.059693 0 255 255
-0.355555 -0.120072 -0.059693 0 255 255
-0.35591 -0.119017 -0.059693 0 255 255
-0.356302 -0.117836 -0.059693 0 255 255
-0.356671 -0.116716 -0.059693 0 255 255
-0.357056 -0.115532 -0.059693 0 255 255
-0.366802 -0.117485 -0.061264 0 255 255
-0.376584 -0.119315 -0.062835 0 255 255
-0.376957 -0.118131 -0.062835 0 255 255
-0.377326 -0.116946 -0.062835 0 255 255
-0.377692 -0.11576 -0.062835 0 255 255
-0.396957 -0.120302 -0.065977 0 255 255
-0.378412 -0.113385 -0.062835 0 255 255
-0.397705 -0.117805 -0.065977 0 255 255
-0.398073 -0.116555 -0.065977 0 255 255
-0.38897 -0.112491 -0.064406 0 255 255
-0.398817 -0.113982 -0.065977 0 255 255
-0.399173 -0.112729 -0.065977 0 255 255
-0.390013 -0.10882 -0.064406 0 255 255
-0.390353 -0.107594 -0.064406 0 255 255
-0.400218 -0.108962 -0.065977 0 255 255
-0.381484 -0.102575 -0.062835 0 255 255
-0.381804 -0.101376 -0.062835 0 255 255
-0.372568 -0.097672 -0.061264 0 255 255
-0.382434 -0.098975 -0.062835 0 255 255
-0.382743 -0.097773 -0.062835 0 255 255
-0.363896 -0.091742 -0.059693 0 255 255
-0.354598 -0.088214 -0.058122 0 255 255
-0.364465 -0.089454 -0.059693 0 255 255
-0.374343 -0.090632 -0.061264 0 255 255
-0.355414 -0.084868 -0.058122 0 255 255
-0.336453 -0.079224 -0.054981 0 255 255
-0.3367 -0.078167 -0.054981 0 255 255
-0.346571 -0.079312 -0.056552 0 255 255
-0.346819 -0.078223 -0.056552 0 255 255
-0.347076 -0.077072 -0.056552 0 255 255
-0.337669 -0.073871 -0.054981 0 255 255
-0.337899 -0.07281 -0.054981 0 255 255
-0.347787 -0.073798 -0.056552 0 255 255
-0.319016 -0.066646 -0.051839 0 255 255
-0.319224 -0.065643 -0.051839 0 255 255
-0.338787 -0.068558 -0.054981 0 255 255
-0.31963 -0.063636 -0.051839 0 255 255
-0.319828 -0.062632 -0.051839 0 255 255
-0.349116 -0.067229 -0.056552 0 255 255
-0.329919 -0.062458 -0.05341 0 255 255
-0.339823 -0.063228 -0.054981 0 255 255
-0.340019 -0.06216 -0.054981 0 255 255
-0.340213 -0.061091 -0.054981 0 255 255
-0.330678 -0.058307 -0.05341 0 255 255
-0.360053 -0.062321 -0.058122 0 255 255
-0.360247 -0.06119 -0.058122 0 255 255
-0.340954 -0.056811 -0.054981 0 255 255
-0.331384 -0.054148 -0.05341 0 255 255
-0.370569 -0.059289 -0.059693 0 255 255
-0.370754 -0.058125 -0.059693 0 255 255
-0.351402 -0.054023 -0.056552 0 255 255
-0.361345 -0.054326 -0.058122 0 255 255
-0.351744 -0.051753 -0.056552 0 255 255
-0.342129 -0.049241 -0.054981 0 255 255
-0.332495 -0.046847 -0.05341 0 255 255
-0.313081 -0.043054 -0.050268 0 255 255
-0.33279 -0.044699 -0.05341 0 255 255
-0.323137 -0.04237 -0.051839 0 255 255
-0.333065 -0.042607 -0.05341 0 255 255
-0.323397 -0.040339 -0.051839 0 255 255
-0.323522 -0.039322 -0.051839 0 255 255
-0.323644 -0.038306 -0.051839 0 255 255
-0.304141 -0.035029 -0.048697 0 255 255
-0.314064 -0.035172 -0.050268 0 255 255
-0.314173 -0.034186 -0.050268 0 255 255
-0.314279 -0.033198 -0.050268 0 255 255
-0.314381 -0.032211 -0.050268 0 255 255
-0.304653 -0.030247 -0.048697 0 255 255
-0.314577 -0.030235 -0.050268 0 255 255
-0.304837 -0.028333 -0.048697 0 255 255
-0.304925 -0.027375 -0.048697 0 255 255
-0.29517 -0.025565 -0.047126 0 255 255
-0.314937 -0.026225 -0.050268 0 255 255
-0.295329 -0.023658 -0.047126 0 255 255
-0.315091 -0.0243 -0.050268 0 255 255
-0.315166 -0.02331 -0.050268 0 255 255
-0.305387 -0.021623 -0.048697 0 255 255
-0.2956 -0.019996 -0.047126 0 255 255
-0.295661 -0.019068 -0.047126 0 255 255
-0.29572 -0.018139 -0.047126 0 255 255
-0.295775 -0.01721 -0.047126 0 255 255
-0.295828 -0.01628 -0.047126 0 255 255
-0.276152 -0.014328 -0.043985 0 255 255
-0.276196 -0.01346 -0.043985 0 255 255
-0.286102 -0.013042 -0.045555 0 255 255
-0.266408 -0.011306 -0.042414 0 255 255
-0.286179 -0.011244 -0.045555 0 255 255
-0.276343 -0.009988 -0.043985 0 255 255
-0.276373 -0.00912 -0.043985 0 255 255
-0.286272 -0.008546 -0.045555 0 255 255
-0.276425 -0.007383 -0.043985 0 255 255
-0.286321 -0.006698 -0.045555 0 255 255
-0.276467 -0.005598 -0.043985 0 255 255
-0.266609 -0.004561 -0.042414 0 255 255
-0.286372 -0.003999 -0.045555 0 255 255
-0.316009 -0.00342 -0.050268 0 255 255
-0.370743 0.058189 -0.059693 0 255 255
-0.370559 0.059354 -0.059693 0 255 255
-0.360624 0.058925 -0.058122 0 255 255
-0.350695 0.058435 -0.056552 0 255 255
-0.35051 0.059536 -0.056552 0 255 255
-0.330859 0.057268 -0.05341 0 255 255
-0.3015 0.053163 -0.048697 0 255 255
-0.311052 0.055855 -0.050268 0 255 255
-0.32059 0.058608 -0.051839 0 255 255
-0.320404 0.059615 -0.051839 0 255 255
-0.329919 0.062458 -0.05341 0 255 255
-0.329721 0.063494 -0.05341 0 255 255
-0.348903 0.068326 -0.056552 0 255 255
-0.31963 0.063636 -0.051839 0 255 255
-0.290389 0.058764 -0.047126 0 255 255
-0.290203 0.059676 -0.047126 0 255 255
-0.299681 0.062607 -0.048697 0 255 255
-0.318805 0.067648 -0.051839 0 255 255
-0.337899 0.072809 -0.054981 0 255 255
-0.366612 0.080203 -0.059693 0 255 255
-0.385625 0.085703 -0.062835 0 255 255
-0.404622 0.09126 -0.065977 0 255 255
-0.433231 0.099064 -0.070689 0 255 255
-0.461779 0.10712 -0.075402 0 255 255
-0.471054 0.110832 -0.076973 0 255 255
-0.441885 0.105435 -0.07226 0 255 255
-0.470348 0.113789 -0.076973 0 255 255
-0.47958 0.117619 -0.078544 0 255 255
-0.450455 0.111977 -0.073831 0 255 255
-0.430948 0.108567 -0.070689 0 255 255
-0.430605 0.10992 -0.070689 0 255 255
-0.439819 0.113745 -0.07226 0 255 255
-0.429906 0.112623 -0.070689 0 255 255
-0.439095 0.116506 -0.07226 0 255 255
-0.448265 0.120448 -0.073831 0 255 255
-0.466943 0.127041 -0.076973 0 255 255
-0.466542 0.128507 -0.076973 0 255 255
-0.475649 0.132625 -0.078544 0 255 255
-0.484734 0.1368 -0.080115 0 255 255
-0.46531 0.132898 -0.076973 0 255 255
-0.455402 0.131617 -0.075402 0 255 255
-0.445508 0.130276 -0.073831 0 255 255
-0.454566 0.134476 -0.075402 0 255 255
-0.473064 0.141566 -0.078544 0 255 255
-0.463165 0.140191 -0.076973 0 255 255
-0.453279 0.138754 -0.075402 0 255 255
-0.452841 0.140178 -0.075402 0 255 255
-0.442973 0.13865 -0.073831 0 255 255
-0.442535 0.140041 -0.073831 0 255 255
-0.432687 0.138421 -0.07226 0 255 255
-0.441647 0.142818 -0.073831 0 255 255
-0.45997 0.150341 -0.076973 0 255 255
-0.468873 0.154883 -0.078544 0 255 255
-0.468384 0.156356 -0.078544 0 255 255
-0.467891 0.157826 -0.078544 0 255 255
-0.47674 0.162481 -0.080115 0 255 255
-0.476228 0.163978 -0.080115 0 255 255
-0.466382 0.162229 -0.078544 0 255 255
-0.484505 0.170241 -0.081686 0 255 255
-0.483968 0.171762 -0.081686 0 255 255
-0.492723 0.176614 -0.083257 0 255 255
-0.492165 0.178161 -0.083257 0 255 255
-0.491603 0.179707 -0.083257 0 255 255
-0.500301 0.18467 -0.084827 0 255 255
-0.490464 0.182792 -0.083257 0 255 255
-0.499131 0.18781 -0.084827 0 255 255
-0.507771 0.192884 -0.086398 0 255 255
-0.497941 0.190942 -0.084827 0 255 255
-0.488129 0.188941 -0.083257 0 255 255
-0.50593 0.197661 -0.086398 0 255 255
-0.505307 0.199249 -0.086398 0 255 255
-0.504678 0.200836 -0.086398 0 255 255
-0.50408 0.202332 -0.086398 0 255 255
-0.503407 0.204003 -0.086398 0 255 255
-0.502763 0.205583 -0.086398 0 255 255
-0.492985 0.203395 -0.084827 0 255 255
-0.510616 0.212444 -0.087969 0 255 255
-0.500803 0.210313 -0.086398 0 255 255
-0.509234 0.215737 -0.087969 0 255 255
-0.508553 0.217336 -0.087969 0 255 255
-0.507868 0.218933 -0.087969 0 255 255
-0.507178 0.220527 -0.087969 0 255 255
-0.506521 0.222031 -0.087969 0 255 255
-0.496789 0.219628 -0.086398 0 255 255
-0.505116 0.225209 -0.087969 0 255 255
-0.49536 0.222832 -0.086398 0 255 255
-0.494657 0.224387 -0.086398 0 255 255
-0.511912 0.234155 -0.08954 0 255 255
-0.511215 0.235673 -0.08954 0 255 255
-0.519428 0.241441 -0.091111 0 255 255
-0.518667 0.243072 -0.091111 0 255 255
-0.508971 0.240481 -0.08954 0 255 255
-0.508213 0.242079 -0.08954 0 255 255
-0.516353 0.247949 -0.091111 0 255 255
-0.515571 0.24957 -0.091111 0 255 255
-0.505909 0.246858 -0.08954 0 255 255
-0.513993 0.252804 -0.091111 0 255 255
-0.513196 0.254418 -0.091111 0 255 255
-0.512394 0.256029 -0.091111 0 255 255
-0.520408 0.262079 -0.092682 0 255 255
-0.519582 0.263713 -0.092682 0 255 255
-0.518751 0.265344 -0.092682 0 255 255
-0.526693 0.271497 -0.094253 0 255 255
-0.517074 0.268598 -0.092682 0 255 255
-0.516227 0.270221 -0.092682 0 255 255
-0.515376 0.271842 -0.092682 0 255 255
-0.514519 0.27346 -0.092682 0 255 255
-0.513658 0.275075 -0.092682 0 255 255
-0.521482 0.281377 -0.094253 0 255 255
-0.529272 0.28773 -0.095824 0 255 255
-0.519704 0.284647 -0.094253 0 255 255
-0.527454 0.29105 -0.095824 0 255 255
-0.517955 0.287817 -0.094253 0 255 255
-0.516998 0.289533 -0.094253 0 255 255
-0.516086 0.291156 -0.094253 0 255 255
-0.523703 0.297747 -0.095824 0 255 255
-0.531388 0.304206 -0.097394 0 255 255
-0.53043 0.305874 -0.097394 0 255 255
-0.520979 0.302487 -0.095824 0 255 255
-0.528551 0.309108 -0.097394 0 255 255
-0.519068 0.305755 -0.095824 0 255 255
-0.518105 0.307384 -0.095824 0 255 255
-0.508659 0.303944 -0.094253 0 255 255
-0.516164 0.310633 -0.095824 0 255 255
-0.523631 0.317372 -0.097394 0 255 255
-0.522631 0.319015 -0.097394 0 255 255
-0.53004 0.325828 -0.098965 0 255 255
-0.529014 0.327491 -0.098965 0 255 255
-0.536363 0.334376 -0.100536 0 255 255
-0.518581 0.325558 -0.097394 0 255 255
-0.525904 0.332462 -0.098965 0 255 255
-0.533188 0.339416 -0.100536 0 255 255
-0.523804 0.33576 -0.098965 0 255 255
-0.514449 0.332049 -0.097394 0 255 255
-0.546526 0.35519 -0.103678 0 255 255
-0.520617 0.340682 -0.098965 0 255 255
-0.519544 0.342316 -0.098965 0 255 255
-0.534925 0.354865 -0.102107 0 255 255
-0.533808 0.356544 -0.102107 0 255 255
-0.52449 0.352708 -0.100536 0 255 255
-0.515201 0.348817 -0.098965 0 255 255
-0.530424 0.361559 -0.102107 0 255 255
-0.529348 0.363131 -0.102107 0 255 255
-0.528205 0.364793 -0.102107 0 255 255
-0.527056 0.36645 -0.102107 0 255 255
-0.533993 0.373767 -0.103678 0 255 255
-0.524743 0.369754 -0.102107 0 255 255
-0.539689 0.382829 -0.105249 0 255 255
-0.530447 0.378783 -0.103678 0 255 255
-0.513216 0.368919 -0.100536 0 255 255
-0.528057 0.382109 -0.103678 0 255 255
-0.534836 0.38958 -0.105249 0 255 255
-0.517681 0.379579 -0.102107 0 255 255
-0.50854 0.375339 -0.100536 0 255 255
-0.499431 0.371045 -0.098965 0 255 255
-0.482445 0.360784 -0.095824 0 255 255
-0.473419 0.356358 -0.094253 0 255 255
-0.472297 0.357844 -0.094253 0 255 255
-0.455465 0.347348 -0.091111 0 255 255
-0.438703 0.336751 -0.087969 0 255 255
-0.429886 0.332014 -0.086398 0 255 255
-0.428841 0.333363 -0.086398 0 255 255
-0.412235 0.322537 -0.083257 0 255 255
-0.426738 0.336051 -0.086398 0 255 255
-0.41794 0.331255 -0.084827 0 255 255
-0.424618 0.338725 -0.086398 0 255 255
-0.423552 0.340058 -0.086398 0 255 255
-0.422481 0.341387 -0.086398 0 255 255
-0.421407 0.342712 -0.086398 0 255 255
-0.420328 0.344035 -0.086398 0 255 255
-0.419245 0.345353 -0.086398 0 255 255
-0.415972 0.349289 -0.086398 0 255 255
-0.437502 0.369718 -0.091111 0 255 255
-0.443861 0.377488 -0.092682 0 255 255
-0.43517 0.372459 -0.091111 0 255 255
-0.456446 0.39316 -0.095824 0 255 255
-0.455209 0.394592 -0.095824 0 255 255
-0.461409 0.402512 -0.097394 0 255 255
-0.445367 0.390851 -0.094253 0 255 255
-0.451539 0.398786 -0.095824 0 255 255
-0.465047 0.413324 -0.098965 0 255 255
-0.463747 0.414783 -0.098965 0 255 255
-0.455101 0.409631 -0.097394 0 255 255
-0.453812 0.411059 -0.097394 0 255 255
-0.445219 0.405829 -0.095824 0 255 255
-0.429387 0.393874 -0.092682 0 255 255
-0.413634 0.381824 -0.08954 0 255 255
-0.405197 0.3764 -0.087969 0 255 255
-0.396798 0.370927 -0.086398 0 255 255
-0.402824 0.378939 -0.087969 0 255 255
-0.401631 0.380202 -0.087969 0 255 255
-0.407585 0.388274 -0.08954 0 255 255
-0.413493 0.396387 -0.091111 0 255 255
-0.426461 0.411397 -0.094253 0 255 255
-0.439339 0.426493 -0.097394 0 255 255
-0.437996 0.427871 -0.097394 0 255 255
-0.436725 0.429168 -0.097394 0 255 255
-0.3789 0.455578 -0.094253 0 255 255
-0.377467 0.456766 -0.094253 0 255 255
-0.369763 0.450317 -0.092682 0 255 255
-0.323462 0.398873 -0.081686 0 255 255
-0.316011 0.392197 -0.080115 0 255 255
-0.296197 0.370111 -0.075402 0 255 255
-0.307326 0.3865 -0.078544 0 255 255
-0.364055 0.528714 -0.102107 0 255 255
-0.351241 0.513552 -0.098965 0 255 255
-0.377374 0.555498 -0.10682 0 255 255
-0.370103 0.548494 -0.105249 0 255 255
-0.36288 0.541451 -0.103678 0 255 255
-0.333903 0.501424 -0.095824 0 255 255
-0.359566 0.543657 -0.103678 0 255 255
-0.352434 0.53653 -0.102107 0 255 255
-0.329162 0.504549 -0.095824 0 255 255
-0.343686 0.530445 -0.100536 0 255 255
-0.309954 0.481692 -0.091111 0 255 255
-0.313757 0.490985 -0.092682 0 255 255
-0.317504 0.500307 -0.094253 0 255 255
-0.3054 0.484592 -0.091111 0 255 255
-0.153165 0.27643 -0.050268 0 255 255
-0.161814 0.294217 -0.05341 0 255 255
-0.151425 0.277387 -0.050268 0 255 255
-0.150553 0.277861 -0.050268 0 255 255
-0.149679 0.278333 -0.050268 0 255 255
-0.148804 0.278802 -0.050268 0 255 255
-0.146231 0.291254 -0.051839 0 255 255
-2.09767 4.60079 -0.804289 0 255 255
-2.04252 4.51737 -0.788581 0 255 255
-2.02428 4.51475 -0.78701 0 255 255
-1.982 4.45792 -0.776014 0 255 255
-1.99189 4.51835 -0.785439 0 255 255
-1.98164 4.53363 -0.78701 0 255 255
-1.94382 4.48547 -0.777584 0 255 255
-1.92972 4.49155 -0.777584 0 255 255
-1.91947 4.50668 -0.779155 0 255 255
-1.90914 4.52178 -0.780726 0 255 255
-1.92162 4.59153 -0.791722 0 255 255
-1.87851 4.56665 -0.785439 0 255 255
-1.86415 4.57253 -0.785439 0 255 255
-1.85348 4.58752 -0.78701 0 255 255
-1.86108 4.64833 -0.796435 0 255 255
-1.82826 4.60825 -0.788581 0 255 255
-1.81016 4.60478 -0.78701 0 255 255
-1.79927 4.61965 -0.788581 0 255 255
-1.79267 4.64339 -0.791722 0 255 255
-1.73221 4.52909 -0.771301 0 255 255
-1.72147 4.54374 -0.772872 0 255 255
-1.70719 4.54913 -0.772872 0 255 255
-1.69633 4.56373 -0.774443 0 255 255
-1.75704 4.77293 -0.809002 0 255 255
-1.74542 4.7877 -0.810573 0 255 255
-1.68342 4.66311 -0.788581 0 255 255
-1.66544 4.65908 -0.78701 0 255 255
-1.63761 4.62705 -0.780726 0 255 255
-1.62061 4.62257 -0.779155 0 255 255
-1.65142 4.75826 -0.801148 0 255 255
-1.64609 4.79144 -0.80586 0 255 255
-1.64056 4.82464 -0.810573 0 255 255
-1.638 4.86721 -0.816856 0 255 255
-1.6539 4.96603 -0.832565 0 255 255
-1.64757 4.99934 -0.837278 0 255 255
-2.51361 7.7086 -1.28969 0 255 255
-1.61309 5.00019 -0.835707 0 255 255
-2.44814 7.75036 -1.29283 0 255 255
-2.41789 7.73916 -1.28969 0 255 255
-2.39804 7.76601 -1.29283 0 255 255
-2.37651 7.78295 -1.2944 0 255 255
-2.35056 7.78051 -1.29283 0 255 255
-2.3261 7.78786 -1.29283 0 255 255
-2.30163 7.79513 -1.29283 0 255 255
-2.27989 7.8118 -1.2944 0 255 255
-2.25534 7.81892 -1.2944 0 255 255
-2.23076 7.82597 -1.2944 0 255 255
-2.20617 7.83294 -1.2944 0 255 255
-2.1842 7.84935 -1.29597 0 255 255
-2.15429 7.83712 -1.29283 0 255 255
-2.13483 7.86292 -1.29597 0 255 255
-2.11012 7.86958 -1.29597 0 255 255
-2.08539 7.87617 -1.29597 0 255 255
-2.05813 7.87313 -1.2944 0 255 255
-2.03833 7.89868 -1.29754 0 255 255
-2.01488 7.9047 -1.29754 0 255 255
-1.99004 7.91099 -1.29754 0 255 255
-1.96518 7.9172 -1.29754 0 255 255
-1.94029 7.92334 -1.29754 0 255 255
-1.91539 7.92939 -1.29754 0 255 255
-1.89505 7.95458 -1.30069 0 255 255
-1.86779 7.95088 -1.29912 0 255 255
-1.84503 7.96633 -1.30069 0 255 255
-1.81999 7.97209 -1.30069 0 255 255
-1.79711 7.9874 -1.30226 0 255 255
-1.77126 7.98306 -1.30069 0 255 255
-1.74618 7.98858 -1.30069 0 255 255
