ply
format ascii 1.0
element vertex 1262
property float x
property float y
property float z
property uchar red
property uchar green
property uchar blue
end_header
1.57743 -3.54131 -0.75718 0 255 255
1.5663 -3.54625 -0.75718 0 255 255
1.55122 -3.54216 -0.755264 0 255 255
1.53617 -3.53801 -0.753347 0 255 255
1.52893 -3.55184 -0.755264 0 255 255
1.51776 -3.55662 -0.755264 0 255 255
1.49893 -3.5433 -0.75143 0 255 255
1.48779 -3.54799 -0.75143 0 255 255
1.47602 -3.5529 -0.75143 0 255 255
1.46112 -3.54845 -0.749513 0 255 255
1.44625 -3.54393 -0.747596 0 255 255
1.43511 -3.54846 -0.747596 0 255 255
1.42396 -3.55295 -0.747596 0 255 255
1.41641 -3.56653 -0.749513 0 255 255
1.39801 -3.55269 -0.745679 0 255 255
1.38328 -3.54792 -0.743762 0 255 255
1.37504 -3.56165 -0.745679 0 255 255
1.36384 -3.56595 -0.745679 0 255 255
1.34916 -3.56104 -0.743762 0 255 255
1.33451 -3.55607 -0.741845 0 255 255
1.32334 -3.56025 -0.741845 0 255 255
1.31214 -3.56438 -0.741845 0 255 255
1.29696 -3.55949 -0.739928 0 255 255
1.28244 -3.55432 -0.738011 0 255 255
1.27457 -3.56757 -0.739928 0 255 255
1.26008 -3.56231 -0.738011 0 255 255
1.24502 -3.5572 -0.736094 0 255 255
1.23384 -3.5611 -0.736094 0 255 255
1.22202 -3.56517 -0.736094 0 255 255
1.21144 -3.56878 -0.736094 0 255 255
1.20022 -3.57257 -0.736094 0 255 255
1.18589 -3.56701 -0.734177 0 255 255
1.17775 -3.58004 -0.736094 0 255 255
1.16346 -3.57439 -0.734177 0 255 255
1.15222 -3.57803 -0.734177 0 255 255
1.138 -3.57228 -0.732261 0 255 255
1.12677 -3.57583 -0.732261 0 255 255
1.11553 -3.57936 -0.732261 0 255 255
1.10654 -3.59242 -0.734177 0 255 255
1.08953 -3.5771 -0.730344 0 255 255
1.07829 -3.5805 -0.730344 0 255 255
1.06704 -3.58387 -0.730344 0 255 255
1.05238 -3.57797 -0.728427 0 255 255
1.04113 -3.58126 -0.728427 0 255 255
1.02988 -3.58452 -0.728427 0 255 255
1.01593 -3.57829 -0.72651 0 255 255
1.00468 -3.58147 -0.72651 0 255 255
0.993425 -3.5846 -0.72651 0 255 255
0.979568 -3.57824 -0.724593 0 255 255
0.968321 -3.5813 -0.724593 0 255 255
0.95391 -3.57501 -0.722676 0 255 255
0.945174 -3.58748 -0.724593 0 255 255
0.930803 -3.58109 -0.722676 0 255 255
0.920174 -3.58384 -0.722676 0 255 255
0.9065 -3.5772 -0.720759 0 255 255
0.897638 -3.58955 -0.722676 0 255 255
0.884006 -3.58283 -0.720759 0 255 255
0.872746 -3.58559 -0.720759 0 255 255
0.863768 -3.59785 -0.722676 0 255 255
0.8502 -3.591 -0.720759 0 255 255
0.836683 -3.58409 -0.718842 0 255 255
0.82762 -3.59627 -0.720759 0 255 255
0.81569 -3.59899 -0.720759 0 255 255
0.806518 -3.61112 -0.722676 0 255 255
0.809934 -3.68073 -0.736094 0 255 255
0.819158 -3.77917 -0.755264 0 255 255
0.816858 -3.82986 -0.764848 0 255 255
0.824992 -3.92846 -0.784017 0 255 255
0.830529 -4.01754 -0.801269 0 255 255
0.835514 -4.10668 -0.818522 0 255 255
0.843799 -4.21515 -0.839608 0 255 255
0.845723 -4.29481 -0.854943 0 255 255
0.84902 -4.38417 -0.872195 0 255 255
0.857271 -4.50251 -0.895198 0 255 255
0.861176 -4.60165 -0.914367 0 255 255
0.344891 -2.28049 -0.450474 0 255 255
0.319043 -2.15535 -0.425555 0 255 255
0.326336 -2.25347 -0.444724 0 255 255
0.32161 -2.27397 -0.448558 0 255 255
0.313121 -2.26525 -0.446641 0 255 255
0.308629 -2.28568 -0.450474 0 255 255
0.30273 -2.29637 -0.452391 0 255 255
0.714632 -5.69687 -1.12139 0 255 255
0.69554 -5.68934 -1.11948 0 255 255
0.677663 -5.6915 -1.11948 0 255 255
0.636224 -5.49872 -1.08114 0 255 255
0.596998 -5.30563 -1.0428 0 255 255
0.580326 -5.30748 -1.0428 0 255 255
0.56365 -5.30928 -1.0428 0 255 255
0.545962 -5.30126 -1.04088 0 255 255
0.53028 -5.31272 -1.0428 0 255 255
0.513587 -5.31436 -1.0428 0 255 255
0.495975 -5.30617 -1.04088 0 255 255
0.477496 -5.29801 -1.03897 0 255 255
0.461699 -5.30927 -1.04088 0 255 255
0.222919 -2.66023 -0.5214 0 255 255
0.388101 -4.81314 -0.943121 0 255 255
0.303993 -3.92388 -0.768682 0 255 255
0.26548 -3.57246 -0.699673 0 255 255
0.25919 -3.65164 -0.715008 0 255 255
0.247717 -3.65244 -0.715008 0 255 255
0.236242 -3.6532 -0.715008 0 255 255
0.224764 -3.65392 -0.715008 0 255 255
0.213284 -3.65461 -0.715008 0 255 255
0.277056 -5.32209 -1.04088 0 255 255
0.274239 -5.60722 -1.09647 0 255 255
0.259218 -5.68653 -1.11181 0 255 255
0.028302 -1.05959 -0.207027 0 255 255
0.022493 -0.961563 -0.187857 0 255 255
0.019869 -0.981254 -0.191691 0 255 255
0.01645 -0.961685 -0.187857 0 255 255
0.013566 -0.971546 -0.189774 0 255 255
0.010514 -0.971584 -0.189774 0 255 255
0.007462 -0.971612 -0.189774 0 255 255
0.004409 -0.971631 -0.189774 0 255 255
0.001187 -0.97164 -0.189774 0 255 255
-0.001847 -0.961824 -0.187857 0 255 255
-0.004819 -0.951999 -0.185941 0 255 255
-0.00789 -0.961794 -0.187857 0 255 255
-0.010911 -0.961764 -0.187857 0 255 255
-0.013933 -0.961725 -0.187857 0 255 255
-0.016954 -0.961677 -0.187857 0 255 255
-0.020179 -0.971431 -0.189774 0 255 255
-0.023231 -0.971363 -0.189774 0 255 255
-0.026017 -0.961474 -0.187857 0 255 255
-0.029503 -0.971193 -0.189774 0 255 255
-0.032225 -0.961286 -0.187857 0 255 255
-0.035245 -0.96118 -0.187857 0 255 255
-0.038655 -0.970871 -0.189774 0 255 255
-0.041705 -0.970745 -0.189774 0 255 255
-0.044302 -0.960805 -0.187857 0 255 255
-0.04732 -0.960661 -0.187857 0 255 255
-0.051021 -0.9703 -0.189774 0 255 255
-0.054069 -0.970135 -0.189774 0 255 255
-0.05654 -0.960163 -0.187857 0 255 255
-0.059723 -0.95997 -0.187857 0 255 255
-0.063379 -0.969571 -0.189774 0 255 255
-0.066425 -0.969368 -0.189774 0 255 255
-0.06947 -0.969154 -0.189774 0 255 255
-0.071782 -0.959144 -0.187857 0 255 255
-0.075558 -0.968698 -0.189774 0 255 255
-0.078601 -0.968456 -0.189774 0 255 255
-0.081643 -0.968205 -0.189774 0 255 255
-0.084684 -0.967943 -0.189774 0 255 255
-0.087724 -0.967672 -0.189774 0 255 255
-0.090764 -0.967392 -0.189774 0 255 255
-0.093803 -0.967102 -0.189774 0 255 255
-0.097989 -0.976551 -0.191691 0 255 255
-0.101057 -0.976239 -0.191691 0 255 255
-0.10325 -0.966139 -0.189774 0 255 255
-0.106285 -0.96581 -0.189774 0 255 255
-0.110423 -0.975224 -0.191691 0 255 255
-0.113486 -0.974872 -0.191691 0 255 255
-0.116548 -0.974511 -0.191691 0 255 255
-0.118413 -0.964398 -0.189774 0 255 255
-0.122669 -0.973759 -0.191691 0 255 255
-0.124639 -0.963613 -0.189774 0 255 255
-0.128955 -0.972947 -0.191691 0 255 255
-0.130691 -0.962811 -0.189774 0 255 255
-0.136416 -0.981838 -0.193608 0 255 255
-0.138119 -0.971688 -0.191691 0 255 255
-0.141171 -0.971249 -0.191691 0 255 255
-0.144221 -0.970801 -0.191691 0 255 255
-0.148743 -0.980047 -0.193608 0 255 255
-0.151821 -0.979575 -0.193608 0 255 255
-0.153364 -0.969399 -0.191691 0 255 255
-0.157973 -0.978601 -0.193608 0 255 255
-0.161047 -0.9781 -0.193608 0 255 255
-0.162494 -0.96791 -0.191691 0 255 255
-0.165703 -0.967366 -0.191691 0 255 255
-0.168741 -0.966841 -0.191691 0 255 255
-0.171777 -0.966306 -0.191691 0 255 255
-0.174812 -0.965761 -0.191691 0 255 255
-0.177845 -0.965207 -0.191691 0 255 255
-0.182686 -0.97429 -0.193608 0 255 255
-0.184075 -0.964039 -0.191691 0 255 255
-0.187102 -0.963456 -0.191691 0 255 255
-0.192029 -0.972492 -0.193608 0 255 255
-0.197015 -0.981506 -0.195525 0 255 255
-0.200098 -0.980883 -0.195525 0 255 255
-0.203178 -0.980249 -0.195525 0 255 255
-0.206257 -0.979606 -0.195525 0 255 255
-0.207281 -0.969356 -0.193608 0 255 255
-0.21449 -0.987882 -0.197442 0 255 255
-0.21548 -0.977619 -0.195525 0 255 255
-0.218721 -0.976899 -0.195525 0 255 255
-0.219614 -0.966636 -0.193608 0 255 255
-0.224855 -0.975505 -0.195525 0 255 255
-0.230153 -0.984351 -0.197442 0 255 255
-0.228715 -0.964523 -0.193608 0 255 255
-0.234038 -0.973343 -0.195525 0 255 255
-0.237095 -0.972603 -0.195525 0 255 255
-0.240149 -0.971853 -0.195525 0 255 255
-0.245757 -0.980571 -0.197442 0 255 255
-0.24642 -0.970282 -0.195525 0 255 255
-0.251913 -0.979008 -0.197442 0 255 255
-0.254987 -0.978212 -0.197442 0 255 255
-0.260565 -0.986895 -0.199359 0 255 255
-0.261129 -0.97659 -0.197442 0 255 255
-0.264366 -0.975719 -0.197442 0 255 255
-0.270026 -0.984348 -0.199359 0 255 255
-0.273117 -0.983495 -0.199359 0 255 255
-0.278861 -0.992081 -0.201276 0 255 255
-0.276606 -0.97232 -0.197442 0 255 255
-0.285089 -0.990309 -0.201276 0 255 255
-0.285454 -0.979986 -0.199359 0 255 255
-0.291306 -0.988498 -0.201276 0 255 255
-0.291606 -0.978173 -0.199359 0 255 255
-0.297511 -0.986648 -0.201276 0 255 255
-0.295052 -0.966882 -0.197442 0 255 255
-0.303876 -0.984707 -0.201276 0 255 255
-0.304045 -0.974378 -0.199359 0 255 255
-0.307104 -0.973418 -0.199359 0 255 255
-0.310331 -0.972394 -0.199359 0 255 255
-0.316397 -0.980755 -0.201276 0 255 255
-0.319477 -0.979756 -0.201276 0 255 255
-0.322553 -0.978748 -0.201276 0 255 255
-0.325797 -0.977673 -0.201276 0 255 255
-0.328867 -0.976645 -0.201276 0 255 255
-0.338256 -0.994189 -0.20511 0 255 255
-0.338187 -0.98384 -0.203193 0 255 255
-0.341276 -0.982773 -0.203193 0 255 255
-0.344362 -0.981696 -0.203193 0 255 255
-0.350722 -0.98986 -0.20511 0 255 255
-0.350524 -0.979513 -0.203193 0 255 255
-0.353599 -0.978407 -0.203193 0 255 255
-0.360036 -0.986511 -0.20511 0 255 255
-0.35974 -0.976166 -0.203193 0 255 255
-0.362975 -0.974968 -0.203193 0 255 255
-0.369489 -0.98301 -0.20511 0 255 255
-0.372575 -0.981844 -0.20511 0 255 255
-0.379169 -0.989834 -0.207027 0 255 255
-0.378737 -0.979484 -0.20511 0 255 255
-0.385381 -0.987432 -0.207027 0 255 255
-0.388481 -0.986216 -0.207027 0 255 255
-0.399004 -1.00316 -0.21086 0 255 255
-0.394841 -0.983687 -0.207027 0 255 255
-0.401614 -0.991538 -0.208943 0 255 255
-0.404727 -0.990272 -0.208943 0 255 255
-0.411578 -0.998069 -0.21086 0 255 255
-0.410942 -0.987709 -0.208943 0 255 255
-0.414042 -0.986413 -0.208943 0 255 255
-0.420966 -0.994146 -0.21086 0 255 255
-0.424261 -0.992744 -0.21086 0 255 255
-0.427377 -0.991406 -0.21086 0 255 255
-0.434403 -0.999059 -0.212777 0 255 255
-0.43754 -0.99769 -0.212777 0 255 255
-0.440672 -0.99631 -0.212777 0 255 255
-0.451796 -1.01285 -0.216611 0 255 255
-0.45095 -1.00247 -0.214694 0 255 255
-0.454097 -1.00105 -0.214694 0 255 255
-0.457239 -0.999619 -0.214694 0 255 255
-0.460552 -0.998098 -0.214694 0 255 255
-0.463685 -0.996646 -0.214694 0 255 255
-0.466814 -0.995184 -0.214694 0 255 255
-0.469938 -0.993713 -0.214694 0 255 255
-0.473058 -0.992231 -0.214694 0 255 255
-0.480424 -0.999586 -0.216611 0 255 255
-0.479283 -0.989239 -0.214694 0 255 255
-0.491002 -1.00537 -0.218528 0 255 255
-0.489823 -0.995014 -0.216611 0 255 255
-0.49312 -0.993384 -0.216611 0 255 255
-0.50063 -1.00061 -0.218528 0 255 255
-0.50819 -1.00779 -0.220445 0 255 255
-0.506907 -0.997442 -0.218528 0 255 255
-0.510038 -0.995845 -0.218528 0 255 255
-0.522167 -1.01168 -0.222362 0 255 255
-0.520814 -1.00133 -0.220445 0 255 255
-0.523957 -0.999686 -0.220445 0 255 255
-0.531854 -1.00662 -0.222362 0 255 255
-0.535014 -1.00495 -0.222362 0 255 255
-0.538169 -1.00326 -0.222362 0 255 255
-0.536651 -0.99293 -0.220445 0 255 255
-0.549155 -1.00848 -0.224279 0 255 255
-0.557041 -1.01535 -0.226196 0 255 255
-0.550733 -0.996418 -0.222362 0 255 255
-0.55881 -1.00316 -0.224279 0 255 255
-0.585975 -1.04419 -0.233863 0 255 255
-0.574762 -1.01672 -0.228113 0 255 255
-0.592524 -1.04049 -0.233863 0 255 255
-0.135489 -0.227737 -0.051757 0 255 255
-0.131159 -0.218891 -0.04984 0 255 255
-0.131846 -0.218478 -0.04984 0 255 255
-0.127435 -0.209676 -0.047923 0 255 255
-0.133216 -0.217645 -0.04984 0 255 255
-0.12875 -0.208871 -0.047923 0 255 255
-0.129405 -0.208465 -0.047923 0 255 255
-0.140464 -0.224702 -0.051757 0 255 255
-0.130749 -0.207625 -0.047923 0 255 255
-0.1314 -0.207213 -0.047923 0 255 255
-0.132051 -0.2068 -0.047923 0 255 255
-0.1327 -0.206384 -0.047923 0 255 255
-0.138681 -0.214204 -0.04984 0 255 255
-0.133994 -0.205546 -0.047923 0 255 255
-0.129253 -0.196919 -0.046006 0 255 255
-0.129905 -0.196489 -0.046006 0 255 255
-0.130522 -0.19608 -0.046006 0 255 255
-0.131138 -0.195669 -0.046006 0 255 255
-0.137241 -0.203392 -0.047923 0 255 255
-0.137879 -0.20296 -0.047923 0 255 255
-0.132976 -0.194425 -0.046006 0 255 255
-0.133586 -0.194006 -0.046006 0 255 255
-0.128636 -0.185497 -0.044089 0 255 255
-0.146072 -0.209234 -0.04984 0 255 255
-0.152372 -0.216804 -0.051757 0 255 255
-0.141715 -0.2003 -0.047923 0 255 255
-0.153732 -0.215842 -0.051757 0 255 255
-0.183003 -0.255239 -0.061341 0 255 255
-0.172358 -0.238717 -0.057507 0 255 255
-0.178877 -0.246113 -0.059424 0 255 255
-0.220216 -0.300997 -0.072843 0 255 255
-0.291 -0.395136 -0.095846 0 255 255
-0.227947 -0.307491 -0.07476 0 255 255
-0.293477 -0.3933 -0.095846 0 255 255
-0.3065 -0.408071 -0.099679 0 255 255
-0.343293 -0.45408 -0.111181 0 255 255
-0.338775 -0.445189 -0.109264 0 255 255
-0.298396 -0.389581 -0.095846 0 255 255
-0.275649 -0.35755 -0.088178 0 255 255
-0.216603 -0.279143 -0.069009 0 255 255
-0.253783 -0.324827 -0.08051 0 255 255
-0.242668 -0.308598 -0.076676 0 255 255
-0.213182 -0.269355 -0.067092 0 255 255
-0.189567 -0.237977 -0.059424 0 255 255
-0.159618 -0.199093 -0.04984 0 255 255
-0.154079 -0.190953 -0.047923 0 255 255
-0.154679 -0.190468 -0.047923 0 255 255
-0.155276 -0.189981 -0.047923 0 255 255
-0.143433 -0.174308 -0.044089 0 255 255
-0.15024 -0.181415 -0.046006 0 255 255
-0.157093 -0.188482 -0.047923 0 255 255
-0.151377 -0.180468 -0.046006 0 255 255
-0.158274 -0.187491 -0.047923 0 255 255
-0.158862 -0.186993 -0.047923 0 255 255
-0.159449 -0.186493 -0.047923 0 255 255
-0.172837 -0.20087 -0.051757 0 255 255
-0.186316 -0.215165 -0.05559 0 255 255
-0.186991 -0.214579 -0.05559 0 255 255
-0.174722 -0.199232 -0.051757 0 255 255
-0.220807 -0.250193 -0.065175 0 255 255
-0.228155 -0.256796 -0.067092 0 255 255
-0.248585 -0.278028 -0.072843 0 255 255
-0.256072 -0.284496 -0.07476 0 255 255
-0.333923 -0.359596 -0.095846 0 255 255
-0.321709 -0.344147 -0.092012 0 255 255
-0.336238 -0.357432 -0.095846 0 255 255
-0.344107 -0.363501 -0.097763 0 255 255
-0.345247 -0.362418 -0.097763 0 255 255
-0.339592 -0.354247 -0.095846 0 255 255
-0.340703 -0.353178 -0.095846 0 255 255
-0.321302 -0.33098 -0.090095 0 255 255
-0.342916 -0.351031 -0.095846 0 255 255
-0.344078 -0.349892 -0.095846 0 255 255
-0.345175 -0.348809 -0.095846 0 255 255
-0.346269 -0.347723 -0.095846 0 255 255
-0.354307 -0.353566 -0.097763 0 255 255
-0.355416 -0.352451 -0.097763 0 255 255
-0.356522 -0.351333 -0.097763 0 255 255
-0.37866 -0.370812 -0.103513 0 255 255
-0.358722 -0.349086 -0.097763 0 255 255
-0.366872 -0.35478 -0.099679 0 255 255
-0.367985 -0.353625 -0.099679 0 255 255
-0.354898 -0.338911 -0.095846 0 255 255
-0.35602 -0.337733 -0.095846 0 255 255
-0.357079 -0.336612 -0.095846 0 255 255
-0.358135 -0.335489 -0.095846 0 255 255
-0.366371 -0.341049 -0.097763 0 255 255
-0.360236 -0.333232 -0.095846 0 255 255
-0.361281 -0.332099 -0.095846 0 255 255
-0.362323 -0.330962 -0.095846 0 255 255
-0.370628 -0.336419 -0.097763 0 255 255
-0.393547 -0.354973 -0.103513 0 255 255
-0.365426 -0.327533 -0.095846 0 255 255
-0.38844 -0.345966 -0.101596 0 255 255
-0.389585 -0.344676 -0.101596 0 255 255
-0.412779 -0.362891 -0.107347 0 255 255
-0.384352 -0.335764 -0.099679 0 255 255
-0.385405 -0.334555 -0.099679 0 255 255
-0.408749 -0.352574 -0.10543 0 255 255
-0.425132 -0.348338 -0.107347 0 255 255
-0.380557 -0.309822 -0.095846 0 255 255
-0.389159 -0.314798 -0.097763 0 255 255
-0.390146 -0.313574 -0.097763 0 255 255
-0.368122 -0.293973 -0.092012 0 255 255
-0.376732 -0.298915 -0.093929 0 255 255
-0.377669 -0.29773 -0.093929 0 255 255
-0.370876 -0.290491 -0.092012 0 255 255
-0.364091 -0.283233 -0.090095 0 255 255
-0.357213 -0.276086 -0.088178 0 255 255
-0.389216 -0.298872 -0.095846 0 255 255
-0.358941 -0.273836 -0.088178 0 255 255
-0.398908 -0.302349 -0.097763 0 255 255
-0.399856 -0.301094 -0.097763 0 255 255
-0.385082 -0.288078 -0.093929 0 255 255
-0.370231 -0.275158 -0.090095 0 255 255
-0.363198 -0.268164 -0.088178 0 255 255
-0.348211 -0.255412 -0.084344 0 255 255
-0.364922 -0.265813 -0.088178 0 255 255
-0.365755 -0.264665 -0.088178 0 255 255
-0.366585 -0.263515 -0.088178 0 255 255
-0.367411 -0.262362 -0.088178 0 255 255
-0.360228 -0.255528 -0.086261 0 255 255
-0.369052 -0.260048 -0.088178 0 255 255
-0.369867 -0.258888 -0.088178 0 255 255
-0.370679 -0.257724 -0.088178 0 255 255
-0.395714 -0.273291 -0.093929 0 255 255
-0.388477 -0.266494 -0.092012 0 255 255
-0.397423 -0.270799 -0.093929 0 255 255
-0.390144 -0.264048 -0.092012 0 255 255
-0.391018 -0.262753 -0.092012 0 255 255
-0.391841 -0.261523 -0.092012 0 255 255
-0.400841 -0.265714 -0.093929 0 255 255
-0.409871 -0.26985 -0.095846 0 255 255
-0.402503 -0.26319 -0.093929 0 255 255
-0.386865 -0.251233 -0.090095 0 255 255
-0.404149 -0.260656 -0.093929 0 255 255
-0.388436 -0.248798 -0.090095 0 255 255
-0.397497 -0.252844 -0.092012 0 255 255
-0.381694 -0.241111 -0.088178 0 255 255
-0.382491 -0.239843 -0.088178 0 255 255
-0.391574 -0.243829 -0.090095 0 255 255
-0.400686 -0.247759 -0.092012 0 255 255
-0.393099 -0.241363 -0.090095 0 255 255
-0.427375 -0.260564 -0.097763 0 255 255
-0.411399 -0.249054 -0.093929 0 255 255
-0.41218 -0.24776 -0.093929 0 255 255
-0.387673 -0.231375 -0.088178 0 255 255
-0.413728 -0.245166 -0.093929 0 255 255
-0.406037 -0.238888 -0.092012 0 255 255
-0.415261 -0.242561 -0.093929 0 255 255
-0.416021 -0.241256 -0.093929 0 255 255
-0.408271 -0.235051 -0.092012 0 255 255
-0.43457 -0.248377 -0.097763 0 255 255
-0.426854 -0.242093 -0.095846 0 255 255
-0.427613 -0.240751 -0.095846 0 255 255
-0.4198 -0.234618 -0.093929 0 255 255
-0.429117 -0.238059 -0.095846 0 255 255
-0.421265 -0.231976 -0.093929 0 255 255
-0.430604 -0.235358 -0.095846 0 255 255
-0.422715 -0.229324 -0.093929 0 255 255
-0.449358 -0.241954 -0.099679 0 255 255
-0.450115 -0.240541 -0.099679 0 255 255
-0.442198 -0.234527 -0.097763 0 255 255
-0.460345 -0.242199 -0.101596 0 255 255
-0.452404 -0.236209 -0.099679 0 255 255
-0.435715 -0.225757 -0.095846 0 255 255
-0.453879 -0.233362 -0.099679 0 255 255
-0.445867 -0.227475 -0.097763 0 255 255
-0.44658 -0.226073 -0.097763 0 255 255
-0.429747 -0.215858 -0.093929 0 255 255
-0.421639 -0.21013 -0.092012 0 255 255
-0.395903 -0.195754 -0.086261 0 255 255
-0.414175 -0.203081 -0.090095 0 255 255
-0.423637 -0.206072 -0.092012 0 255 255
-0.397731 -0.192014 -0.086261 0 255 255
-0.416036 -0.199242 -0.090095 0 255 255
-0.398929 -0.189511 -0.086261 0 255 255
-0.399556 -0.188187 -0.086261 0 255 255
-0.391253 -0.182777 -0.084344 0 255 255
-0.40073 -0.185673 -0.086261 0 255 255
-0.392393 -0.180315 -0.084344 0 255 255
-0.392958 -0.179081 -0.084344 0 255 255
-0.393519 -0.177846 -0.084344 0 255 255
-0.376163 -0.168581 -0.08051 0 255 255
-0.376691 -0.167398 -0.08051 0 255 255
-0.377215 -0.166214 -0.08051 0 255 255
-0.368741 -0.161099 -0.078593 0 255 255
-0.378252 -0.163841 -0.08051 0 255 255
-0.378764 -0.162652 -0.08051 0 255 255
-0.379302 -0.161395 -0.08051 0 255 255
-0.379807 -0.160202 -0.08051 0 255 255
-0.371253 -0.155222 -0.078593 0 255 255
-0.362672 -0.150298 -0.076676 0 255 255
-0.363143 -0.149158 -0.076676 0 255 255
-0.36361 -0.148016 -0.076676 0 255 255
-0.364073 -0.146873 -0.076676 0 255 255
-0.364532 -0.145729 -0.076676 0 255 255
-0.364988 -0.144583 -0.076676 0 255 255
-0.347169 -0.136264 -0.072843 0 255 255
-0.36589 -0.142287 -0.076676 0 255 255
-0.357176 -0.137608 -0.07476 0 255 255
-0.339268 -0.129486 -0.070926 0 255 255
-0.339673 -0.12842 -0.070926 0 255 255
-0.340075 -0.127352 -0.070926 0 255 255
-0.349675 -0.129696 -0.072843 0 255 255
-0.340869 -0.125213 -0.070926 0 255 255
-0.350483 -0.127496 -0.072843 0 255 255
-0.34167 -0.123009 -0.070926 0 255 255
-0.33281 -0.118639 -0.069009 0 255 255
-0.323926 -0.114327 -0.067092 0 255 255
-0.333549 -0.116546 -0.069009 0 255 255
-0.333913 -0.115497 -0.069009 0 255 255
-0.34356 -0.117627 -0.070926 0 255 255
-0.334632 -0.113397 -0.069009 0 255 255
-0.344292 -0.115466 -0.070926 0 255 255
-0.344653 -0.114384 -0.070926 0 255 255
-0.345011 -0.1133 -0.070926 0 255 255
-0.354699 -0.115249 -0.072843 0 255 255
-0.35506 -0.114134 -0.072843 0 255 255
-0.355417 -0.113018 -0.072843 0 255 255
-0.355789 -0.111839 -0.072843 0 255 255
-0.356139 -0.11072 -0.072843 0 255 255
-0.356466 -0.109663 -0.072843 0 255 255
-0.366218 -0.111335 -0.07476 0 255 255
-0.366566 -0.110184 -0.07476 0 255 255
-0.36691 -0.109032 -0.07476 0 255 255
-0.376667 -0.110645 -0.076676 0 255 255
-0.386439 -0.112198 -0.078593 0 255 255
-0.386789 -0.110983 -0.078593 0 255 255
-0.368251 -0.104413 -0.07476 0 255 255
-0.368577 -0.103256 -0.07476 0 255 255
-0.3689 -0.102097 -0.07476 0 255 255
-0.369219 -0.100938 -0.07476 0 255 255
-0.360059 -0.097219 -0.072843 0 255 255
-0.350879 -0.093559 -0.070926 0 255 255
-0.360663 -0.094955 -0.072843 0 255 255
-0.35146 -0.091352 -0.070926 0 255 255
-0.361252 -0.092687 -0.072843 0 255 255
-0.352027 -0.089142 -0.070926 0 255 255
-0.342784 -0.085656 -0.069009 0 255 255
-0.343051 -0.084579 -0.069009 0 255 255
-0.324242 -0.078862 -0.065175 0 255 255
-0.305401 -0.073264 -0.061341 0 255 255
-0.324731 -0.076823 -0.065175 0 255 255
-0.315426 -0.073518 -0.063258 0 255 255
-0.30609 -0.070329 -0.061341 0 255 255
-0.325454 -0.073702 -0.065175 0 255 255
-0.325684 -0.07268 -0.065175 0 255 255
-0.32591 -0.071656 -0.065175 0 255 255
-0.316542 -0.068554 -0.063258 0 255 255
-0.326354 -0.069607 -0.065175 0 255 255
-0.297756 -0.06253 -0.059424 0 255 255
-0.317174 -0.065568 -0.063258 0 255 255
-0.326996 -0.066528 -0.065175 0 255 255
-0.307956 -0.061647 -0.061341 0 255 255
-0.298518 -0.058783 -0.059424 0 255 255
-0.279431 -0.054113 -0.05559 0 255 255
-0.318165 -0.060578 -0.063258 0 255 255
-0.328 -0.061384 -0.065175 0 255 255
-0.328202 -0.060296 -0.065175 0 255 255
-0.338048 -0.061007 -0.067092 0 255 255
-0.347902 -0.061658 -0.069009 0 255 255
-0.338425 -0.058882 -0.067092 0 255 255
-0.338608 -0.057819 -0.067092 0 255 255
-0.348468 -0.058376 -0.069009 0 255 255
-0.338965 -0.05569 -0.067092 0 255 255
-0.348828 -0.056185 -0.069009 0 255 255
-0.30053 -0.047438 -0.059424 0 255 255
-0.339475 -0.052493 -0.067092 0 255 255
-0.310526 -0.047018 -0.061341 0 255 255
-0.330089 -0.04892 -0.065175 0 255 255
-0.310816 -0.045066 -0.061341 0 255 255
-0.301238 -0.042712 -0.059424 0 255 255
-0.291649 -0.040418 -0.057507 0 255 255
-0.301501 -0.040818 -0.059424 0 255 255
-0.311357 -0.041157 -0.061341 0 255 255
-0.301751 -0.038923 -0.059424 0 255 255
-0.292134 -0.03675 -0.057507 0 255 255
-0.311731 -0.038221 -0.061341 0 255 255
-0.292359 -0.034913 -0.057507 0 255 255
-0.302216 -0.035128 -0.059424 0 255 255
-0.28282 -0.031973 -0.05559 0 255 255
-0.282919 -0.031085 -0.05559 0 255 255
-0.283021 -0.030146 -0.05559 0 255 255
-0.273352 -0.028248 -0.053674 0 255 255
-0.273439 -0.027389 -0.053674 0 255 255
-0.293056 -0.028476 -0.057507 0 255 255
-0.283373 -0.026637 -0.05559 0 255 255
-0.283455 -0.025747 -0.05559 0 255 255
-0.293316 -0.025662 -0.057507 0 255 255
-0.293395 -0.02474 -0.057507 0 255 255
-0.293476 -0.023767 -0.057507 0 255 255
-0.30333 -0.02366 -0.059424 0 255 255
-0.293615 -0.021974 -0.057507 0 255 255
-0.293683 -0.021051 -0.057507 0 255 255
-0.274165 -0.018787 -0.053674 0 255 255
-0.29381 -0.019206 -0.057507 0 255 255
-0.284073 -0.017673 -0.05559 0 255 255
-0.284127 -0.016781 -0.05559 0 255 255
-0.293977 -0.016436 -0.057507 0 255 255
-0.294028 -0.015512 -0.057507 0 255 255
-0.294075 -0.014588 -0.057507 0 255 255
-0.284315 -0.013209 -0.05559 0 255 255
-0.284355 -0.012316 -0.05559 0 255 255
-0.274586 -0.011029 -0.053674 0 255 255
-0.284427 -0.010529 -0.05559 0 255 255
-0.284459 -0.009635 -0.05559 0 255 255
-0.274678 -0.00844 -0.053674 0 255 255
-0.274703 -0.007577 -0.053674 0 255 255
-0.274725 -0.006714 -0.053674 0 255 255
-0.264933 -0.005642 -0.051757 0 255 255
-0.255136 -0.004632 -0.04984 0 255 255
-0.264963 -0.003977 -0.051757 0 255 255
-0.264974 -0.003145 -0.051757 0 255 255
-0.245354 -0.002141 -0.047923 0 255 255
-0.255174 -0.001425 -0.04984 0 255 255
-0.245363 -0.0006 -0.047923 0 255 255
-0.245364 0.000171 -0.047923 0 255 255
-0.245362 0.000942 -0.047923 0 255 255
-0.245358 0.001713 -0.047923 0 255 255
-0.255165 0.002583 -0.04984 0 255 255
-0.255155 0.003429 -0.04984 0 255 255
-0.255143 0.004231 -0.04984 0 255 255
-0.264941 0.005226 -0.051757 0 255 255
-0.264925 0.006012 -0.051757 0 255 255
-0.284527 0.007351 -0.05559 0 255 255
-0.343365 0.009951 -0.067092 0 255 255
-0.402187 0.01299 -0.078593 0 255 255
-0.402144 0.014254 -0.078593 0 255 255
-0.372676 0.014382 -0.072843 0 255 255
-0.320752 0.044907 -0.063258 0 255 255
-0.310894 0.044524 -0.061341 0 255 255
-0.330174 0.048344 -0.065175 0 255 255
-0.320314 0.047929 -0.063258 0 255 255
-0.31046 0.047452 -0.061341 0 255 255
-0.320007 0.04994 -0.063258 0 255 255
-0.319848 0.050945 -0.063258 0 255 255
-0.309999 0.050375 -0.061341 0 255 255
-0.300157 0.049745 -0.059424 0 255 255
-0.299999 0.050687 -0.059424 0 255 255
-0.299839 0.051629 -0.059424 0 255 255
-0.299675 0.052571 -0.059424 0 255 255
-0.30917 0.055239 -0.061341 0 255 255
-0.280026 0.05094 -0.05559 0 255 255
-0.279865 0.051819 -0.05559 0 255 255
-0.279701 0.052698 -0.05559 0 255 255
-0.289173 0.055424 -0.057507 0 255 255
-0.288997 0.056332 -0.057507 0 255 255
-0.298446 0.059148 -0.059424 0 255 255
-0.298259 0.060085 -0.059424 0 255 255
-0.288454 0.059054 -0.057507 0 255 255
-0.288267 0.05996 -0.057507 0 255 255
-0.288077 0.060865 -0.057507 0 255 255
-0.268692 0.057652 -0.053674 0 255 255
-0.287689 0.062674 -0.057507 0 255 255
-0.268325 0.059339 -0.053674 0 255 255
-0.268137 0.060181 -0.053674 0 255 255
-0.258377 0.058844 -0.051757 0 255 255
-0.258191 0.059655 -0.051757 0 255 255
-0.248446 0.058227 -0.04984 0 255 255
-0.238714 0.056738 -0.047923 0 255 255
-0.228993 0.055188 -0.046006 0 255 255
-0.228818 0.055907 -0.046006 0 255 255
-0.238168 0.058985 -0.047923 0 255 255
-0.276059 0.06929 -0.05559 0 255 255
-0.304375 0.077415 -0.061341 0 255 255
-0.30413 0.07837 -0.061341 0 255 255
-0.332372 0.086762 -0.067092 0 255 255
-0.351075 0.092823 -0.070926 0 255 255
-0.379223 0.101542 -0.076676 0 255 255
-0.435737 0.118142 -0.088178 0 255 255
-0.444828 0.122109 -0.090095 0 255 255
-0.434986 0.120878 -0.088178 0 255 255
-0.472396 0.132874 -0.095846 0 255 255
-0.434218 0.123608 -0.088178 0 255 255
-0.433828 0.124972 -0.088178 0 255 255
-0.433433 0.126334 -0.088178 0 255 255
-0.433034 0.127695 -0.088178 0 255 255
-0.442036 0.131861 -0.090095 0 255 255
-0.451016 0.136084 -0.092012 0 255 255
-0.46936 0.143229 -0.095846 0 255 255
-0.45953 0.141809 -0.093929 0 255 255
-0.468451 0.146175 -0.095846 0 255 255
-0.46799 0.147646 -0.095846 0 255 255
-0.439472 0.140169 -0.090095 0 255 255
-0.457712 0.147572 -0.093929 0 255 255
-0.457246 0.149009 -0.093929 0 255 255
-0.494063 0.162726 -0.101596 0 255 255
-0.446988 0.14878 -0.092012 0 255 255
-0.474426 0.15957 -0.097763 0 255 255
-0.473922 0.161059 -0.097763 0 255 255
-0.482697 0.165735 -0.099679 0 255 255
-0.463628 0.160818 -0.095846 0 255 255
-0.463121 0.162273 -0.095846 0 255 255
-0.453357 0.160453 -0.093929 0 255 255
-0.471334 0.168484 -0.097763 0 255 255
-0.461571 0.166631 -0.095846 0 255 255
-0.461045 0.16808 -0.095846 0 255 255
-0.478936 0.176309 -0.099679 0 255 255
-0.478379 0.177813 -0.099679 0 255 255
-0.487007 0.182763 -0.101596 0 255 255
-0.477253 0.180815 -0.099679 0 255 255
-0.485849 0.185819 -0.101596 0 255 255
-0.494419 0.190879 -0.103513 0 255 255
-0.493817 0.192432 -0.103513 0 255 255
-0.474943 0.186798 -0.099679 0 255 255
-0.483476 0.19191 -0.101596 0 255 255
-0.464649 0.186129 -0.097763 0 255 255
-0.48226 0.194944 -0.101596 0 255 255
-0.481646 0.196458 -0.101596 0 255 255
-0.481026 0.19797 -0.101596 0 255 255
-0.480402 0.19948 -0.101596 0 255 255
-0.479773 0.200988 -0.101596 0 255 255
-0.470099 0.198674 -0.099679 0 255 255
-0.487529 0.207848 -0.103513 0 255 255
-0.477857 0.205501 -0.101596 0 255 255
-0.486213 0.210907 -0.103513 0 255 255
-0.485548 0.212434 -0.103513 0 255 255
-0.475899 0.209996 -0.101596 0 255 255
-0.484204 0.21548 -0.103513 0 255 255
-0.47457 0.212982 -0.101596 0 255 255
-0.464957 0.210425 -0.099679 0 255 255
-0.482151 0.220034 -0.103513 0 255 255
-0.481458 0.221548 -0.103513 0 255 255
-0.480759 0.223059 -0.103513 0 255 255
-0.488946 0.228727 -0.10543 0 255 255
-0.479348 0.226075 -0.103513 0 255 255
-0.478675 0.227497 -0.103513 0 255 255
-0.477958 0.228999 -0.103513 0 255 255
-0.477196 0.230583 -0.103513 0 255 255
-0.485293 0.236379 -0.10543 0 255 255
-0.48459 0.237818 -0.10543 0 255 255
-0.475043 0.234987 -0.103513 0 255 255
-0.491869 0.245237 -0.107347 0 255 255
-0.473557 0.237967 -0.103513 0 255 255
-0.481563 0.243888 -0.10543 0 255 255
-0.480795 0.2454 -0.10543 0 255 255
-0.480021 0.246909 -0.10543 0 255 255
-0.479243 0.248416 -0.10543 0 255 255
-0.47846 0.24992 -0.10543 0 255 255
-0.495043 0.260565 -0.109264 0 255 255
-0.485551 0.25752 -0.107347 0 255 255
-0.48474 0.259044 -0.107347 0 255 255
-0.483923 0.260566 -0.107347 0 255 255
-0.483103 0.262085 -0.107347 0 255 255
-0.499501 0.273016 -0.111181 0 255 255
-0.490044 0.269849 -0.109264 0 255 255
-0.489193 0.271388 -0.109264 0 255 255
-0.479771 0.268135 -0.107347 0 255 255
-0.487479 0.274456 -0.109264 0 255 255
-0.486614 0.275986 -0.109264 0 255 255
-0.485745 0.277513 -0.109264 0 255 255
-0.493377 0.283933 -0.111181 0 255 255
-0.483991 0.28056 -0.109264 0 255 255
-0.483107 0.282079 -0.109264 0 255 255
-0.482219 0.283595 -0.109264 0 255 255
-0.48977 0.290111 -0.111181 0 255 255
-0.488856 0.291648 -0.111181 0 255 255
-0.487937 0.293182 -0.111181 0 255 255
-0.487065 0.294629 -0.111181 0 255 255
-0.502847 0.306458 -0.115015 0 255 255
-0.493517 0.302902 -0.113098 0 255 255
-0.484215 0.299291 -0.111181 0 255 255
-0.491604 0.305997 -0.113098 0 255 255
-0.498957 0.312752 -0.115015 0 255 255
-0.481426 0.303757 -0.111181 0 255 255
-0.472185 0.300005 -0.109264 0 255 255
-0.487775 0.312065 -0.113098 0 255 255
-0.478541 0.308281 -0.111181 0 255 255
-0.477571 0.309783 -0.111181 0 255 255
-0.476595 0.311281 -0.111181 0 255 255
-0.483815 0.31817 -0.113098 0 255 255
-0.490996 0.325107 -0.115015 0 255 255
-0.489972 0.326648 -0.115015 0 255 255
-0.480795 0.322715 -0.113098 0 255 255
-0.479779 0.324224 -0.113098 0 255 255
-0.486872 0.331251 -0.115015 0 255 255
-0.485829 0.332779 -0.115015 0 255 255
-0.484781 0.334303 -0.115015 0 255 255
-0.491791 0.341422 -0.116932 0 255 255
-0.49876 0.348587 -0.118849 0 255 255
-0.521743 0.367096 -0.124599 0 255 255
-0.504569 0.357387 -0.120765 0 255 255
-0.487462 0.347575 -0.116932 0 255 255
-0.494341 0.354827 -0.118849 0 255 255
-0.485329 0.350546 -0.116932 0 255 255
-0.492164 0.357841 -0.118849 0 255 255
-0.491037 0.359385 -0.118849 0 255 255
-0.466201 0.343462 -0.113098 0 255 255
-0.465119 0.344924 -0.113098 0 255 255
-0.479763 0.358126 -0.116932 0 255 255
-0.455096 0.341945 -0.111181 0 255 255
-0.45402 0.343373 -0.111181 0 255 255
-0.43732 0.332908 -0.107347 0 255 255
-0.444063 0.340249 -0.109264 0 255 255
-0.411905 0.317668 -0.101596 0 255 255
-0.403152 0.312942 -0.099679 0 255 255
-0.402167 0.314207 -0.099679 0 255 255
-0.408892 0.321536 -0.101596 0 255 255
-0.400184 0.316728 -0.099679 0 255 255
-0.399188 0.317983 -0.099679 0 255 255
-0.405844 0.325375 -0.101596 0 255 255
-0.40482 0.326648 -0.101596 0 255 255
-0.403792 0.327918 -0.101596 0 255 255
-0.402759 0.329186 -0.101596 0 255 255
-0.401723 0.330449 -0.101596 0 255 255
-0.422322 0.35174 -0.107347 0 255 255
-0.406112 0.340527 -0.103513 0 255 255
-0.435043 0.367119 -0.111181 0 255 255
-0.433887 0.368484 -0.111181 0 255 255
-0.440254 0.376145 -0.113098 0 255 255
-0.431563 0.371203 -0.111181 0 255 255
-0.437816 0.37898 -0.113098 0 255 255
-0.436623 0.380354 -0.113098 0 255 255
-0.442874 0.388116 -0.115015 0 255 255
-0.471096 0.415473 -0.122682 0 255 255
-0.440427 0.390891 -0.115015 0 255 255
-0.453836 0.405349 -0.118849 0 255 255
-0.445261 0.400212 -0.116932 0 255 255
-0.444002 0.401609 -0.116932 0 255 255
-0.442738 0.403002 -0.116932 0 255 255
-0.426995 0.391132 -0.113098 0 255 255
-0.425764 0.392471 -0.113098 0 255 255
-0.410138 0.380458 -0.109264 0 255 255
-0.401767 0.375047 -0.107347 0 255 255
-0.400586 0.376307 -0.107347 0 255 255
-0.399402 0.377564 -0.107347 0 255 255
-0.405325 0.385581 -0.109264 0 255 255
-0.411201 0.39364 -0.111181 0 255 255
-0.417031 0.401739 -0.113098 0 255 255
-0.429861 0.416709 -0.116932 0 255 255
-0.435575 0.424911 -0.118849 0 255 255
-0.434312 0.426202 -0.118849 0 255 255
-0.439954 0.43446 -0.120765 0 255 255
-0.321731 0.396173 -0.099679 0 255 255
-0.326648 0.40482 -0.101596 0 255 255
-0.313097 0.390529 -0.097763 0 255 255
-0.317983 0.399187 -0.099679 0 255 255
-0.377547 0.4567 -0.094253 0 255 255
-0.369842 0.450252 -0.092682 0 255 255
-0.343447 0.420808 -0.086398 0 255 255
-0.335903 0.414214 -0.084827 0 255 255
-0.309882 0.384453 -0.078544 0 255 255
-0.308673 0.385424 -0.078544 0 255 255
-0.31361 0.39412 -0.080115 0 255 255
-0.291653 0.373702 -0.075402 0 255 255
-0.373638 0.546093 -0.105249 0 255 255
-0.344165 0.506423 -0.097394 0 255 255
-0.364674 0.540244 -0.103678 0 255 255
-0.368474 0.54959 -0.105249 0 255 255
-0.344851 0.517865 -0.098965 0 255 255
-0.326964 0.494177 -0.094253 0 255 255
-0.352528 0.536468 -0.102107 0 255 255
-0.323766 0.496278 -0.094253 0 255 255
-0.349056 0.538734 -0.102107 0 255 255
-0.326074 0.50655 -0.095824 0 255 255
-0.319162 0.499252 -0.094253 0 255 255
-0.322885 0.508589 -0.095824 0 255 255
-0.316019 0.501247 -0.094253 0 255 255
-0.145262 0.258221 -0.047126 0 255 255
-0.158896 0.284543 -0.051839 0 255 255
-0.153213 0.276404 -0.050268 0 255 255
-0.157105 0.285536 -0.051839 0 255 255
-0.162807 0.304911 -0.054981 0 255 255
-0.150662 0.30008 -0.05341 0 255 255
-2.09767 4.60079 -0.804289 0 255 255
-2.05066 4.53537 -0.791722 0 255 255
-2.0089 4.47836 -0.780726 0 255 255
-2.00686 4.51172 -0.785439 0 255 255
-2.00064 4.53607 -0.788581 0 255 255
-1.98639 4.54234 -0.788581 0 255 255
-1.93675 4.467 -0.774443 0 255 255
-1.93441 4.50029 -0.779155 0 255 255
-1.90865 4.47909 -0.774443 0 255 255
-1.90225 4.50326 -0.777584 0 255 255
-1.92242 4.5912 -0.791722 0 255 255
-1.88602 4.58492 -0.788581 0 255 255
-1.87161 4.59082 -0.788581 0 255 255
-1.84317 4.55973 -0.782297 0 255 255
-1.85455 4.62967 -0.793293 0 255 255
-1.82906 4.60793 -0.788581 0 255 255
-1.80735 4.59528 -0.785439 0 255 255
-1.78911 4.63418 -0.790151 0 255 255
-1.73574 4.53831 -0.772872 0 255 255
-1.72497 4.55298 -0.774443 0 255 255
-1.70451 4.53959 -0.771301 0 255 255
-1.70057 4.57269 -0.776014 0 255 255
-1.74339 4.73586 -0.802718 0 255 255
-1.74204 4.77842 -0.809002 0 255 255
-1.68759 4.67211 -0.790151 0 255 255
-1.66293 4.64949 -0.785439 0 255 255
-1.63513 4.61745 -0.779155 0 255 255
-1.62061 4.62257 -0.779155 0 255 255
-1.65465 4.76758 -0.802718 0 255 255
-1.64288 4.7821 -0.804289 0 255 255
-1.64056 4.82464 -0.810573 0 255 255
-1.638 4.86721 -0.816856 0 255 255
-1.65078 4.95666 -0.830994 0 255 255
-1.64757 4.99934 -0.837278 0 255 255
-2.51054 7.69921 -1.28812 0 255 255
-2.46947 7.73322 -1.29126 0 255 255
-2.44814 7.75036 -1.29283 0 255 255
-2.42378 7.75801 -1.29283 0 255 255
-2.40231 7.77502 -1.2944 0 255 255
-2.37499 7.77309 -1.29283 0 255 255
-2.35056 7.78051 -1.29283 0 255 255
-2.3261 7.78786 -1.29283 0 255 255
-2.30442 7.8046 -1.2944 0 255 255
-2.27989 7.8118 -1.2944 0 255 255
-2.25534 7.81892 -1.2944 0 255 255
-2.22806 7.81647 -1.29283 0 255 255
-2.20884 7.84245 -1.29597 0 255 255
-2.1789 7.83032 -1.29283 0 255 255
-2.15952 7.85617 -1.29597 0 255 255
-2.13224 7.85338 -1.2944 0 255 255
-2.11012 7.86958 -1.29597 0 255 255
-2.08676 7.87581 -1.29597 0 255 255
-2.06201 7.88233 -1.29597 0 255 255
-2.03971 7.89833 -1.29754 0 255 255
-2.01732 7.91427 -1.29912 0 255 255
-1.99004 7.91099 -1.29754 0 255 255
-1.96756 7.92678 -1.29912 0 255 255
-1.94029 7.92334 -1.29754 0 255 255
-1.91539 7.92939 -1.29754 0 255 255
-1.89276 7.94498 -1.29912 0 255 255
-1.87005 7.9605 -1.30069 0 255 255
-1.84726 7.97596 -1.30226 0 255 255
-1.8178 7.96246 -1.29912 0 255 255
-1.79633 7.97746 -1.30069 0 255 255
-1.7734 7.9927 -1.30226 0 255 255
-1.7504 8.00788 -1.30383 0 255 255
-1.72107 7.99403 -1.30069 0 255 255
-1.69799 8.00906 -1.30226 0 255 255
-1.67484 8.02402 -1.30383 0 255 255
-1.64624 8.01986 -1.30226 0 255 255
-1.623 8.03467 -1.30383 0 255 255
-1.59915 8.03945 -1.30383 0 255 255
-1.57388 8.04444 -1.30383 0 255 255
-1.5486 8.04934 -1.30383 0 255 255
-1.52331 8.05416 -1.30383 0 255 255
-1.498 8.05891 -1.30383 0 255 255
-1.47444 8.07329 -1.3054 0 255 255
-1.44907 8.07788 -1.3054 0 255 255
-1.42369 8.0824 -1.3054 0 255 255
-1.40139 8.09632 -1.30697 0 255 255
-1.37429 8.09094 -1.3054 0 255 255
-1.35049 8.10496 -1.30697 0 255 255
-1.32502 8.10916 -1.30697 0 255 255
-1.29954 8.11329 -1.30697 0 255 255
-1.27404 8.11733 -1.30697 0 255 255
-1.25004 8.13105 -1.30854 0 255 255
-1.22596 8.14471 -1.31011 0 255 255
-1.1989 8.12877 -1.30697 0 255 255
-1.17618 8.15204 -1.31011 0 255 255
-1.14918 8.14592 -1.30854 0 255 255
-1.12494 8.15927 -1.31011 0 255 255
-1.0993 8.16277 -1.31011 0 255 255
-1.07236 8.15639 -1.30854 0 255 255
-1.04799 8.16951 -1.31011 0 255 255
-1.02232 8.17276 -1.31011 0 255 255
-0.996636 8.17594 -1.31011 0 255 255
-0.972111 8.18883 -1.31168 0 255 255
-0.946378 8.19185 -1.31168 0 255 255
-0.920639 8.19478 -1.31168 0 255 255
-0.895249 8.18766 -1.31011 0 255 255
-0.870562 8.20025 -1.31168 0 255 255
-0.844798 8.20294 -1.31168 0 255 255
-0.819021 8.20556 -1.31168 0 255 255
-0.79324 8.20809 -1.31168 0 255 255
-0.767451 8.21054 -1.31168 0 255 255
-0.742539 8.22275 -1.31325 0 255 255
-0.716705 8.22504 -1.31325 0 255 255
-0.690033 8.21741 -1.31168 0 255 255
-0.665015 8.22938 -1.31325 0 255 255
-0.63992 8.24128 -1.31483 0 255 255
-0.61329 8.2334 -1.31325 0 255 255
-0.587423 8.23528 -1.31325 0 255 255
-0.562218 8.24694 -1.31483 0 255 255
-0.537109 8.23872 -1.31325 0 255 255
-0.511221 8.24037 -1.31325 0 255 255
-0.485328 8.24193 -1.31325 0 255 255
-0.458885 8.23355 -1.31168 0 255 255
-0.433537 8.24482 -1.31325 0 255 255
-0.407634 8.24614 -1.31325 0 255 255
-0.381724 8.24738 -1.31325 0 255 255
-0.356236 8.2584 -1.31483 0 255 255
-0.330291 8.25948 -1.31483 0 255 255
-0.304707 8.27035 -1.3164 0 255 255
-0.278392 8.2614 -1.31483 0 255 255
-0.252434 8.26223 -1.31483 0 255 255
-0.227015 8.28272 -1.31797 0 255 255
-0.200516 8.26365 -1.31483 0 255 255
-0.174764 8.27411 -1.3164 0 255 255
-0.148767 8.27462 -1.3164 0 255 255
-0.124216 8.27503 -1.3164 0 255 255
-0.098099 8.2655 -1.31483 0 255 255
-0.072306 8.28552 -1.31797 0 255 255
-0.046278 8.28571 -1.31797 0 255 255
-0.020245 8.28581 -1.31797 0 255 255
0.005784 8.28583 -1.31797 0 255 255
0.031779 8.2759 -1.3164 0 255 255
0.057846 8.28563 -1.31797 0 255 255
0.083874 8.28541 -1.31797 0 255 255
0.110037 8.29498 -1.31954 0 255 255
0.136094 8.29459 -1.31954 0 255 255
0.161961 8.28425 -1.31797 0 255 255
0.188432 8.30345 -1.32111 0 255 255
0.215026 8.32256 -1.32425 0 255 255
0.8289 2.22054 -0.377011 0 255 255
3.0557 7.88214 -1.34467 0 255 255
3.07188 7.85465 -1.34153 0 255 255
3.09791 7.84442 -1.34153 0 255 255
3.11888 7.82547 -1.33996 0 255 255
3.14345 7.81563 -1.33996 0 255 255
3.17034 7.81542 -1.34153 0 255 255
3.19487 7.80543 -1.34153 0 255 255
3.21938 7.79535 -1.34153 0 255 255
3.24385 7.7852 -1.34153 0 255 255
3.27212 7.78407 -1.3431 0 255 255
3.29656 7.77376 -1.3431 0 255 255
3.32097 7.76336 -1.3431 0 255 255
3.34143 7.74382 -1.34153 0 255 255
3.36968 7.74234 -1.3431 0 255 255
3.39399 7.73172 -1.3431 0 255 255
3.41691 7.72161 -1.3431 0 255 255
3.43847 7.70122 -1.34153 0 255 255
3.46671 7.69939 -1.3431 0 255 255
3.48679 7.67947 -1.34153 0 255 255
3.5109 7.66847 -1.34153 0 255 255
3.53911 7.66637 -1.3431 0 255 255
3.55768 7.64688 -1.34153 0 255 255
3.58588 7.64461 -1.3431 0 255 255
3.60565 7.62438 -1.34153 0 255 255
3.62959 7.61301 -1.34153 0 255 255
3.65777 7.61047 -1.3431 0 255 255
3.68596 7.60783 -1.34467 0 255 255
3.70551 7.58734 -1.3431 0 255 255
3.72497 7.5668 -1.34153 0 255 255
3.7575 7.57276 -1.34467 0 255 255
3.77686 7.55208 -1.3431 0 255 255
3.80945 7.55782 -1.34624 0 255 255
3.8287 7.53701 -1.34467 0 255 255
3.84787 7.51615 -1.3431 0 255 255
3.87146 7.50403 -1.3431 0 255 255
3.89371 7.49251 -1.3431 0 255 255
3.91722 7.48024 -1.3431 0 255 255
3.96375 7.51157 -1.35096 0 255 255
1.17765 2.21484 -0.399003 0 255 255
1.17528 2.19372 -0.395861 0 255 255
4.00622 7.42173 -1.34153 0 255 255
3.99177 7.3397 -1.32896 0 255 255
4.04328 7.37909 -1.33839 0 255 255
4.06644 7.36635 -1.33839 0 255 255
4.08477 7.34491 -1.33682 0 255 255
4.10782 7.33204 -1.33682 0 255 255
4.13569 7.3277 -1.33839 0 255 255
4.15381 7.30609 -1.33682 0 255 255
4.17674 7.293 -1.33682 0 255 255
4.19963 7.27984 -1.33682 0 255 255
4.22248 7.26661 -1.33682 0 255 255
4.24402 7.25405 -1.33682 0 255 255
4.26679 7.24068 -1.33682 0 255 255
4.28952 7.22724 -1.33682 0 255 255
4.3122 7.21373 -1.33682 0 255 255
4.33485 7.20015 -1.33682 0 255 255
4.35744 7.1865 -1.33682 0 255 255
4.38 7.17277 -1.33682 0 255 255
4.40251 7.15898 -1.33682 0 255 255
4.42498 7.14511 -1.33682 0 255 255
4.4474 7.13117 -1.33682 0 255 255
4.46854 7.11795 -1.33682 0 255 255
4.49088 7.10387 -1.33682 0 255 255
4.51848 7.09806 -1.33839 0 255 255
4.53543 7.07552 -1.33682 0 255 255
4.56299 7.06953 -1.33839 0 255 255
4.57979 7.04688 -1.33682 0 255 255
4.60732 7.04072 -1.33839 0 255 255
4.62398 7.01796 -1.33682 0 255 255
4.64601 7.0034 -1.33682 0 255 255
4.66798 6.98877 -1.33682 0 255 255
4.68992 6.97407 -1.33682 0 255 255
4.70627 6.95113 -1.33525 0 255 255
4.72808 6.93631 -1.33525 0 255 255
4.74985 6.92142 -1.33525 0 255 255
4.77157 6.90647 -1.33525 0 255 255
4.79324 6.89144 -1.33525 0 255 255
4.81487 6.87635 -1.33525 0 255 255
4.83645 6.86119 -1.33525 0 255 255
4.85798 6.84596 -1.33525 0 255 255
4.87372 6.82263 -1.33368 0 255 255
4.89513 6.80728 -1.33368 0 255 255
4.91649 6.79187 -1.33368 0 255 255
4.93663 6.77725 -1.33368 0 255 255
4.95789 6.76171 -1.33368 0 255 255
4.97324 6.73816 -1.3321 0 255 255
4.99439 6.7225 -1.3321 0 255 255
5.01548 6.70678 -1.3321 0 255 255
5.03059 6.68309 -1.33053 0 255 255
5.05156 6.66726 -1.33053 0 255 255
5.07248 6.65136 -1.33053 0 255 255
5.09335 6.63539 -1.33053 0 255 255
5.11417 6.61935 -1.33053 0 255 255
5.12888 6.59546 -1.32896 0 255 255
5.15566 6.58709 -1.33053 0 255 255
5.17633 6.57086 -1.33053 0 255 255
5.19695 6.55456 -1.33053 0 255 255
5.21637 6.53912 -1.33053 0 255 255
5.23184 6.51408 -1.32896 0 255 255
5.25849 6.50529 -1.33053 0 255 255
5.2789 6.48874 -1.33053 0 255 255
5.29188 6.46541 -1.32896 0 255 255
5.31216 6.44875 -1.32896 0 255 255
5.3387 6.43963 -1.33053 0 255 255
5.35257 6.41525 -1.32896 0 255 255
5.3727 6.3984 -1.32896 0 255 255
5.39278 6.38149 -1.32896 0 255 255
5.4064 6.35699 -1.32739 0 255 255
5.42635 6.33998 -1.32739 0 255 255
5.45268 6.33038 -1.32896 0 255 255
5.47254 6.31322 -1.32896 0 255 255
5.49125 6.29695 -1.32896 0 255 255
5.50449 6.27225 -1.32739 0 255 255
5.52417 6.25493 -1.32739 0 255 255
5.54379 6.23754 -1.32739 0 255 255
5.55678 6.21273 -1.32582 0 255 255
5.57627 6.19524 -1.32582 0 255 255
5.5957 6.1777 -1.32582 0 255 255
5.62173 6.16739 -1.32739 0 255 255
5.62106 6.12786 -1.32268 0 255 255
5.63358 6.10291 -1.32111 0 255 255
5.62584 6.05624 -1.31483 0 255 255
5.63135 6.02411 -1.31168 0 255 255
5.63671 5.992 -1.30854 0 255 255
5.64193 5.95992 -1.3054 0 255 255
5.64019 5.92071 -1.30069 0 255 255
5.6451 5.88871 -1.29754 0 255 255
5.65671 5.86384 -1.29597 0 255 255
5.6751 5.84604 -1.29597 0 255 255
5.67964 5.81405 -1.29283 0 255 255
5.67711 5.77505 -1.28812 0 255 255
5.66744 5.7291 -1.28184 0 255 255
5.69238 5.71827 -1.28341 0 255 255
5.68934 5.67943 -1.27869 0 255 255
5.68613 5.64066 -1.27398 0 255 255
5.69581 5.61683 -1.27241 0 255 255
5.70637 5.59199 -1.27084 0 255 255
5.69561 5.54648 -1.26456 0 255 255
5.71301 5.52856 -1.26456 0 255 255
5.70899 5.49005 -1.25984 0 255 255
5.71193 5.45844 -1.2567 0 255 255
5.72905 5.44047 -1.2567 0 255 255
5.73175 5.40889 -1.25356 0 255 255
5.7271 5.37059 -1.24885 0 255 255
5.74395 5.35257 -1.24885 0 255 255
5.73899 5.31437 -1.24414 0 255 255
5.74839 5.28962 -1.24256 0 255 255
5.75041 5.25821 -1.23942 0 255 255
5.77421 5.24676 -1.24099 0 255 255
2.52883 2.28337 -0.541953 0 255 255
2.53599 2.27542 -0.541953 0 255 255
5.80128 5.17239 -1.23628 0 255 255
5.80272 5.14104 -1.23314 0 255 255
5.81884 5.12279 -1.23314 0 255 255
5.81261 5.08497 -1.22843 0 255 255
5.8211 5.0602 -1.22686 0 255 255
5.82202 5.02899 -1.22371 0 255 255
5.83779 5.01067 -1.22371 0 255 255
5.84599 4.9859 -1.22214 0 255 255
5.84569 4.95575 -1.219 0 255 255
5.83857 4.91828 -1.21429 0 255 255
5.85399 4.89991 -1.21429 0 255 255
5.86936 4.8815 -1.21429 0 255 255
2.90035 2.38152 -0.596933 0 255 255
4.39775 2.94626 -0.84199 0 255 255
4.39054 2.92149 -0.838849 0 255 255
6.07656 3.98852 -1.15617 0 255 255
6.08079 3.96402 -1.1546 0 255 255
4.04546 2.60113 -0.765017 0 255 255
4.1202 2.63093 -0.777584 0 255 255
4.14467 2.62927 -0.780726 0 255 255
4.16126 2.6215 -0.782297 0 255 255
4.15177 2.54321 -0.774443 0 255 255
4.1616 2.26992 -0.754021 0 255 255
4.13228 2.22035 -0.746167 0 255 255
4.14795 2.21201 -0.747738 0 255 255
4.14615 2.19435 -0.746167 0 255 255
4.15302 2.18131 -0.746167 0 255 255
4.16861 2.17282 -0.747738 0 255 255
4.18419 2.16425 -0.749309 0 255 255
4.19097 2.15109 -0.749309 0 255 255
4.25051 2.16481 -0.758734 0 255 255
5.50891 2.78396 -0.981799 0 255 255
5.50832 2.76317 -0.980228 0 255 255
5.50862 2.74049 -0.978657 0 255 255
5.5172 2.72318 -0.978657 0 255 255
5.51685 2.70148 -0.977086 0 255 255
5.51596 2.68079 -0.975515 0 255 255
5.52436 2.66344 -0.975515 0 255 255
5.52379 2.64182 -0.973944 0 255 255
5.51467 2.61502 -0.970802 0 255 255
5.52286 2.59768 -0.970802 0 255 255
4.54382 2.10339 -0.796435 0 255 255
4.29342 1.93855 -0.749309 0 255 255
4.41667 1.97752 -0.76973 0 255 255
4.49846 1.96346 -0.780726 0 255 255
4.5318 1.96109 -0.785439 0 255 255
4.51979 1.93905 -0.782297 0 255 255
4.46224 1.89779 -0.771301 0 255 255
4.50458 1.89911 -0.777584 0 255 255
4.57431 1.9116 -0.788581 0 255 255
4.85402 2.0106 -0.835707 0 255 255
4.86945 1.99909 -0.837278 0 255 255
4.8757 1.98378 -0.837278 0 255 255
4.88191 1.96846 -0.837278 0 255 255
4.8789 1.94945 -0.835707 0 255 255
4.885 1.93411 -0.835707 0 255 255
4.90025 1.92236 -0.837278 0 255 255
4.89706 1.90338 -0.835707 0 255 255
4.90301 1.88798 -0.835707 0 255 255
4.91815 1.87609 -0.837278 0 255 255
4.92402 1.86063 -0.837278 0 255 255
4.93909 1.84861 -0.838849 0 255 255
4.95413 1.83652 -0.84042 0 255 255
4.96914 1.82435 -0.84199 0 255 255
1.67444 0.5969 -0.282758 0 255 255
1.65768 0.585064 -0.279616 0 255 255
1.66884 0.583111 -0.281187 0 255 255
1.66133 0.574636 -0.279616 0 255 255
1.66312 0.569415 -0.279616 0 255 255
1.6649 0.564187 -0.279616 0 255 255
1.67603 0.562095 -0.281187 0 255 255
1.67779 0.556826 -0.281187 0 255 255
1.66077 0.545389 -0.278045 0 255 255
1.68116 0.546566 -0.281187 0 255 255
1.66416 0.534944 -0.278045 0 255 255
1.69407 0.538692 -0.282758 0 255 255
1.69575 0.533367 -0.282758 0 255 255
1.69742 0.528036 -0.282758 0 255 255
1.70851 0.525605 -0.284329 0 255 255
1.7007 0.517361 -0.282758 0 255 255
1.70232 0.512016 -0.282758 0 255 255
1.71338 0.50948 -0.284329 0 255 255
1.69603 0.498524 -0.281187 0 255 255
1.72604 0.50146 -0.2859 0 255 255
1.7276 0.496035 -0.2859 0 255 255
1.73865 0.493301 -0.287471 0 255 255
1.74019 0.487836 -0.287471 0 255 255
1.72268 0.477094 -0.284329 0 255 255
1.7337 0.474286 -0.2859 0 255 255
1.74471 0.471414 -0.287471 0 255 255
1.73664 0.463384 -0.2859 0 255 255
1.73809 0.457926 -0.2859 0 255 255
1.75864 0.457435 -0.289041 0 255 255
1.7505 0.449452 -0.287471 0 255 255
1.76148 0.446377 -0.289041 0 255 255
1.77245 0.443236 -0.290612 0 255 255
1.77384 0.437666 -0.290612 0 255 255
1.7752 0.432091 -0.290612 0 255 255
1.77655 0.426512 -0.290612 0 255 255
1.77788 0.420929 -0.290612 0 255 255
1.78881 0.417586 -0.292183 0 255 255
1.78049 0.40975 -0.290612 0 255 255
1.78177 0.404154 -0.290612 0 255 255
1.78303 0.398555 -0.290612 0 255 255
1.80356 0.397199 -0.293754 0 255 255
1.8048 0.391531 -0.293754 0 255 255
1.79637 0.383796 -0.292183 0 255 255
1.80723 0.380183 -0.293754 0 255 255
1.80841 0.374505 -0.293754 0 255 255
1.7999 0.366849 -0.292183 0 255 255
1.82041 0.365076 -0.295325 0 255 255
1.82155 0.359355 -0.295325 0 255 255
1.81298 0.35175 -0.293754 0 255 255
1.82377 0.347903 -0.295325 0 255 255
1.82486 0.342172 -0.295325 0 255 255
1.86477 0.343595 -0.301609 0 255 255
1.90471 0.344772 -0.307892 0 255 255
1.90579 0.338787 -0.307892 0 255 255
1.90684 0.332797 -0.307892 0 255 255
1.90788 0.326805 -0.307892 0 255 255
1.91864 0.322446 -0.309463 0 255 255
1.93913 0.31963 -0.312605 0 255 255
