ply
format ascii 1.0
element vertex 1304
property float x
property float y
property float z
property uchar red
property uchar green
property uchar blue
end_header
-0.426917 0.327349 0.046736 0 255 255
-0.425887 0.328688 0.046736 0 255 255
-0.432779 0.336061 0.047602 0 255 255
-0.423871 0.331284 0.046736 0 255 255
-0.430659 0.338773 0.047602 0 255 255
-0.42184 0.333867 0.046736 0 255 255
-0.420789 0.33519 0.046736 0 255 255
-0.427506 0.342742 0.047602 0 255 255
-0.426428 0.344084 0.047602 0 255 255
-0.417611 0.339141 0.046736 0 255 255
-0.416543 0.340452 0.046736 0 255 255
-0.423166 0.348087 0.047602 0 255 255
-0.406722 0.336709 0.045871 0 255 255
-0.421032 0.350666 0.047602 0 255 255
-0.412293 0.345587 0.046736 0 255 255
-0.40359 0.340457 0.045871 0 255 255
-0.417708 0.354618 0.047602 0 255 255
-0.424166 0.3624 0.048467 0 255 255
-0.43058 0.370226 0.049333 0 255 255
-0.452083 0.391055 0.051929 0 255 255
-0.435824 0.379391 0.050198 0 255 255
-0.442124 0.387323 0.051064 0 255 255
-0.440905 0.38871 0.051064 0 255 255
-0.439682 0.390093 0.051064 0 255 255
-0.438454 0.391472 0.051064 0 255 255
-0.444632 0.399506 0.051929 0 255 255
-0.443375 0.400901 0.051929 0 255 255
-0.442184 0.402215 0.051929 0 255 255
-0.448267 0.410329 0.052795 0 255 255
-0.446975 0.411735 0.052795 0 255 255
-0.445679 0.413137 0.052795 0 255 255
-0.437166 0.407663 0.051929 0 255 255
-0.435883 0.409035 0.051929 0 255 255
-0.441839 0.417242 0.052795 0 255 255
-0.440526 0.418628 0.052795 0 255 255
-0.446409 0.426896 0.05366 0 255 255
-0.445065 0.428296 0.05366 0 255 255
-0.429477 0.415756 0.051929 0 255 255
-0.435305 0.424055 0.052795 0 255 255
-0.426856 0.418446 0.051929 0 255 255
-0.425539 0.419785 0.051929 0 255 255
-0.431289 0.428139 0.052795 0 255 255
-0.422893 0.422451 0.051929 0 255 255
-0.414611 0.416642 0.051064 0 255 255
-0.420305 0.425026 0.051929 0 255 255
-0.418967 0.426344 0.051929 0 255 255
-0.417626 0.427658 0.051929 0 255 255
-0.41628 0.428968 0.051929 0 255 255
-0.421846 0.437445 0.052795 0 255 255
-0.413577 0.431575 0.051929 0 255 255
-0.412219 0.432873 0.051929 0 255 255
-0.410933 0.434094 0.051929 0 255 255
-0.416393 0.442639 0.052795 0 255 255
-0.408197 0.436667 0.051929 0 255 255
-0.413604 0.445247 0.052795 0 255 255
-0.412281 0.446472 0.052795 0 255 255
-0.410876 0.447765 0.052795 0 255 255
-0.402755 0.441692 0.051929 0 255 255
-0.414744 0.45772 0.05366 0 255 255
-0.406638 0.451617 0.052795 0 255 255
-0.405217 0.452893 0.052795 0 255 255
-0.410493 0.461537 0.05366 0 255 255
-0.409041 0.462824 0.05366 0 255 255
-0.414158 0.471593 0.054526 0 255 255
-0.406125 0.465385 0.05366 0 255 255
-0.391607 0.451605 0.051929 0 255 255
-0.416199 0.483022 0.055391 0 255 255
-0.414764 0.484255 0.055391 0 255 255
-0.39387 0.462795 0.052795 0 255 255
-0.385981 0.456423 0.051929 0 255 255
-0.371727 0.442379 0.050198 0 255 255
-0.37672 0.451192 0.051064 0 255 255
-0.36894 0.444706 0.050198 0 255 255
-0.354867 0.430488 0.048467 0 255 255
-0.3472 0.423894 0.047602 0 255 255
-0.339651 0.417196 0.046736 0 255 255
-0.332073 0.410516 0.045871 0 255 255
-0.318369 0.395971 0.04414 0 255 255
-0.310905 0.389185 0.043274 0 255 255
-0.297294 0.374554 0.041543 0 255 255
-0.296115 0.375486 0.041543 0 255 255
-0.294934 0.376414 0.041543 0 255 255
-0.293751 0.377339 0.041543 0 255 255
-0.280373 0.362499 0.039813 0 255 255
-0.285304 0.371278 0.040678 0 255 255
-0.278154 0.364205 0.039813 0 255 255
-0.277008 0.365077 0.039813 0 255 255
-0.269863 0.35799 0.038947 0 255 255
-0.268737 0.358836 0.038947 0 255 255
-0.267671 0.359632 0.038947 0 255 255
-0.26654 0.360471 0.038947 0 255 255
-0.265406 0.361307 0.038947 0 255 255
-0.270143 0.370186 0.039813 0 255 255
-0.263131 0.362967 0.038947 0 255 255
-0.261989 0.363792 0.038947 0 255 255
-0.272505 0.380771 0.040678 0 255 255
-0.265535 0.373505 0.039813 0 255 255
-0.264425 0.374292 0.039813 0 255 255
-0.263183 0.375167 0.039813 0 255 255
-0.267698 0.384165 0.040678 0 255 255
-0.26082 0.376813 0.039813 0 255 255
-0.259701 0.377585 0.039813 0 255 255
-0.264133 0.386625 0.040678 0 255 255
-0.262917 0.387453 0.040678 0 255 255
-0.261699 0.388277 0.040678 0 255 255
-0.260546 0.389052 0.040678 0 255 255
-0.253805 0.381573 0.039813 0 255 255
-0.258096 0.390681 0.040678 0 255 255
-0.262333 0.39982 0.041543 0 255 255
-0.255636 0.392295 0.040678 0 255 255
-0.259816 0.40146 0.041543 0 255 255
-0.264011 0.410609 0.042409 0 255 255
-0.257358 0.40304 0.041543 0 255 255
-0.261426 0.41226 0.042409 0 255 255
-0.26013 0.413079 0.042409 0 255 255
-0.253548 0.405447 0.041543 0 255 255
-0.252273 0.406242 0.041543 0 255 255
-0.256225 0.415512 0.042409 0 255 255
-0.244513 0.399323 0.040678 0 255 255
-0.253682 0.417069 0.042409 0 255 255
-0.221468 0.366697 0.037216 0 255 255
-0.128867 0.25858 0.025099 0 255 255
-0.120574 0.251545 0.024234 0 255 255
-0.111227 0.233928 0.022503 0 255 255
-0.110492 0.234276 0.022503 0 255 255
-0.100669 0.216874 0.020772 0 255 255
-0.099305 0.217502 0.020772 0 255 255
-0.086293 0.190586 0.018175 0 255 255
-0.089775 0.199945 0.019041 0 255 255
-0.085094 0.191125 0.018175 0 255 255
-0.088552 0.200489 0.019041 0 255 255
-0.083925 0.191641 0.018175 0 255 255
-0.083323 0.191904 0.018175 0 255 255
-0.082719 0.192164 0.018175 0 255 255
-0.082115 0.192423 0.018175 0 255 255
-0.085392 0.201856 0.019041 0 255 255
-0.080938 0.192921 0.018175 0 255 255
-0.087982 0.211572 0.019906 0 255 255
-0.079758 0.193412 0.018175 0 255 255
-0.077322 0.194399 0.018175 0 255 255
-0.073097 0.196027 0.018175 0 255 255
-0.074638 0.206074 0.019041 0 255 255
-0.077922 0.226046 0.020772 0 255 255
-0.628743 2.04757 0.18608 0 255 255
-0.621594 2.07057 0.187811 0 255 255
-0.612252 2.06296 0.186946 0 255 255
-0.614181 2.09355 0.189542 0 255 255
-0.596503 2.0572 0.18608 0 255 255
-0.593142 2.06853 0.186946 0 255 255
-0.586641 2.07039 0.186946 0 255 255
-0.156152 2.10626 0.183484 0 255 255
0.216835 2.16097 0.188677 0 255 255
0.328473 2.17707 0.191273 0 255 255
0.336829 2.18587 0.192139 0 255 255
0.334034 2.12581 0.186946 0 255 255
0.34071 2.12475 0.186946 0 255 255
0.387371 2.15724 0.190408 0 255 255
0.388772 2.12661 0.187811 0 255 255
0.400919 2.15476 0.190408 0 255 255
0.581977 2.175 0.195601 0 255 255
0.607781 2.18862 0.197332 0 255 255
0.616967 2.1964 0.198197 0 255 255
0.621139 2.18487 0.197332 0 255 255
0.630371 2.19259 0.198197 0 255 255
0.637639 2.19049 0.198197 0 255 255
0.641323 2.17903 0.197332 0 255 255
0.651009 2.18655 0.198197 0 255 255
0.655001 2.17496 0.197332 0 255 255
0.664733 2.18242 0.198197 0 255 255
0.668654 2.1708 0.197332 0 255 255
0.67547 2.16869 0.197332 0 255 255
0.684893 2.17618 0.198197 0 255 255
0.700788 2.20249 0.200793 0 255 255
0.698552 2.17183 0.198197 0 255 255
0.705373 2.16962 0.198197 0 255 255
0.721131 2.19592 0.200793 0 255 255
0.718612 2.16528 0.198197 0 255 255
0.725411 2.16301 0.198197 0 255 255
0.738597 2.17959 0.199928 0 255 255
0.745442 2.17726 0.199928 0 255 255
0.749021 2.16549 0.199063 0 255 255
0.762392 2.18194 0.200793 0 255 255
0.765928 2.17013 0.199928 0 255 255
0.775707 2.17724 0.200793 0 255 255
0.78929 2.19354 0.202524 0 255 255
0.796177 2.19105 0.202524 0 255 255
0.803056 2.18853 0.202524 0 255 255
0.813389 2.19534 0.20339 0 255 255
0.820282 2.19278 0.20339 0 255 255
0.826785 2.19033 0.20339 0 255 255
0.833661 2.18773 0.20339 0 255 255
0.840148 2.18524 0.20339 0 255 255
0.84701 2.18259 0.20339 0 255 255
0.850229 2.17064 0.202524 0 255 255
0.86437 2.18649 0.204255 0 255 255
0.871234 2.18376 0.204255 0 255 255
0.885531 2.1995 0.205986 0 255 255
0.884938 2.17825 0.204255 0 255 255
0.884219 2.15702 0.202524 0 255 255
0.894422 2.16359 0.20339 0 255 255
0.908884 2.17916 0.205121 0 255 255
0.919589 2.18548 0.205986 0 255 255
0.922558 2.17341 0.205121 0 255 255
0.932922 2.17982 0.205986 0 255 255
0.9466 2.17392 0.205986 0 255 255
0.965443 2.1983 0.208583 0 255 255
0.981646 2.18019 0.207717 0 255 255
1.43515 2.22777 0.23022 0 255 255
1.43672 2.21489 0.229355 0 255 255
1.43239 2.19393 0.227624 0 255 255
7.50337 7.57178 0.926073 0 255 255
7.40753 7.42825 0.91136 0 255 255
7.52257 7.49636 0.922611 0 255 255
2.2789 2.22933 0.276957 0 255 255
2.29304 2.2291 0.277822 0 255 255
7.51276 6.20406 0.846448 0 255 255
2.90327 2.36701 0.325424 0 255 255
2.88706 2.33957 0.322827 0 255 255
2.88664 2.32423 0.321962 0 255 255
7.33875 5.83332 0.814425 0 255 255
7.4274 5.86581 0.822215 0 255 255
7.41444 5.81785 0.818753 0 255 255
7.46309 5.82033 0.822215 0 255 255
7.52072 5.82736 0.826542 0 255 255
8.85732 6.81859 0.971079 0 255 255
7.5097 5.74368 0.821349 0 255 255
7.5991 5.77431 0.829139 0 255 255
7.71262 5.82243 0.839525 0 255 255
7.60236 5.70386 0.825677 0 255 255
7.6442 5.69781 0.828273 0 255 255
8.74292 6.47414 0.945114 0 255 255
8.00647 5.77657 0.8577 0 255 255
8.00104 5.69866 0.853372 0 255 255
7.93855 5.61457 0.844718 0 255 255
7.82572 5.49797 0.83087 0 255 255
7.91649 5.52467 0.838659 0 255 255
7.94103 5.50683 0.839525 0 255 255
8.13879 5.60619 0.858565 0 255 255
8.18103 5.59747 0.861162 0 255 255
3.50936 2.36888 0.367833 0 255 255
8.29134 5.55896 0.86722 0 255 255
5.50526 3.05538 0.546989 0 255 255
5.13979 2.78951 0.508042 0 255 255
5.99253 3.18092 0.589398 0 255 255
4.94955 2.50888 0.482077 0 255 255
4.96631 2.49779 0.482943 0 255 255
5.05392 2.52309 0.490732 0 255 255
5.07967 2.51605 0.492463 0 255 255
5.52567 2.71537 0.534872 0 255 255
5.06852 2.47099 0.489867 0 255 255
5.48881 2.65458 0.529679 0 255 255
5.46119 2.62008 0.526217 0 255 255
5.33402 2.53963 0.513235 0 255 255
5.33296 2.5186 0.51237 0 255 255
5.44911 2.55255 0.522755 0 255 255
5.34868 2.48504 0.51237 0 255 255
4.9493 2.28061 0.473423 0 255 255
5.33701 2.43897 0.509773 0 255 255
4.89094 2.21657 0.466499 0 255 255
5.41584 2.43397 0.515832 0 255 255
5.13187 2.28807 0.488136 0 255 255
4.97502 2.19943 0.472557 0 255 255
4.91803 2.1558 0.466499 0 255 255
4.86996 2.11651 0.461306 0 255 255
4.93148 2.12485 0.466499 0 255 255
5.03891 2.1524 0.476019 0 255 255
4.9906 2.11325 0.470826 0 255 255
5.03396 2.11298 0.474288 0 255 255
5.02218 2.0895 0.472557 0 255 255
5.23134 2.15727 0.491598 0 255 255
5.19161 2.12288 0.48727 0 255 255
5.17979 2.09908 0.485539 0 255 255
5.33427 2.1422 0.499387 0 255 255
5.017 1.99651 0.469095 0 255 255
5.19007 2.04652 0.484674 0 255 255
5.13152 2.00482 0.478615 0 255 255
5.14674 1.99319 0.479481 0 255 255
5.13437 1.96987 0.47775 0 255 255
4.94497 1.87941 0.459575 0 255 255
5.16529 1.94459 0.479481 0 255 255
5.19005 1.93532 0.481212 0 255 255
4.95312 1.82927 0.458709 0 255 255
4.99626 1.82738 0.462171 0 255 255
4.86148 1.76079 0.449189 0 255 255
4.88543 1.75309 0.45092 0 255 255
5.28519 1.87782 0.48727 0 255 255
4.88695 1.71905 0.450054 0 255 255
5.03345 1.75284 0.463037 0 255 255
4.87882 1.68182 0.448323 0 255 255
4.90294 1.67292 0.450054 0 255 255
5.06863 1.71169 0.464768 0 255 255
4.89445 1.63576 0.448323 0 255 255
4.86173 1.60787 0.444861 0 255 255
4.8857 1.59878 0.446592 0 255 255
4.90938 1.59042 0.448323 0 255 255
4.94281 1.58411 0.45092 0 255 255
4.91927 1.55954 0.448323 0 255 255
4.97168 1.55898 0.452651 0 255 255
5.07143 1.57375 0.461306 0 255 255
4.96206 1.52274 0.45092 0 255 255
5.01448 1.52161 0.455247 0 255 255
5.23871 1.57169 0.475154 0 255 255
5.24363 1.55522 0.475154 0 255 255
5.31541 1.55836 0.481212 0 255 255
5.25805 1.50574 0.475154 0 255 255
5.2625 1.49013 0.475154 0 255 255
5.27674 1.47627 0.476019 0 255 255
5.26215 1.45438 0.474288 0 255 255
5.2763 1.44046 0.475154 0 255 255
5.3289 1.43685 0.479481 0 255 255
5.36227 1.42779 0.482077 0 255 255
5.386 1.41601 0.483808 0 255 255
5.39042 1.39908 0.483808 0 255 255
5.41409 1.38708 0.485539 0 255 255
5.3991 1.36518 0.483808 0 255 255
5.40337 1.34821 0.483808 0 255 255
8.90944 2.19332 0.797116 0 255 255
8.90623 2.16452 0.79625 0 255 255
8.92267 2.13885 0.797116 0 255 255
8.92934 2.11081 0.797116 0 255 255
8.92623 2.08048 0.79625 0 255 255
8.93272 2.05243 0.79625 0 255 255
8.92941 2.02216 0.795385 0 255 255
8.93537 1.99566 0.795385 0 255 255
8.94159 1.96757 0.795385 0 255 255
8.93799 1.93736 0.794519 0 255 255
8.93429 1.90719 0.793654 0 255 255
8.94024 1.87911 0.793654 0 255 255
8.9461 1.85102 0.793654 0 255 255
8.95187 1.82291 0.793654 0 255 255
8.95756 1.79477 0.793654 0 255 255
8.95337 1.7647 0.792788 0 255 255
8.94909 1.73467 0.791923 0 255 255
8.9542 1.7081 0.791923 0 255 255
8.94973 1.67813 0.791057 0 255 255
8.95496 1.65 0.791057 0 255 255
8.9601 1.62187 0.791057 0 255 255
8.96515 1.59371 0.791057 0 255 255
8.97011 1.56553 0.791057 0 255 255
8.96517 1.53567 0.790192 0 255 255
8.97977 1.50914 0.791057 0 255 255
8.97464 1.47931 0.790192 0 255 255
8.97924 1.4511 0.790192 0 255 255
8.98351 1.42445 0.790192 0 255 255
8.98794 1.39623 0.790192 0 255 255
8.99228 1.36798 0.790192 0 255 255
8.99653 1.33973 0.790192 0 255 255
9.0007 1.31146 0.790192 0 255 255
9.00478 1.28317 0.790192 0 255 255
9.00876 1.25488 0.790192 0 255 255
9.00279 1.22522 0.789326 0 255 255
9.00638 1.19851 0.789326 0 255 255
9.0101 1.17021 0.789326 0 255 255
9.01374 1.1419 0.789326 0 255 255
9.01728 1.11357 0.789326 0 255 255
9.02073 1.08524 0.789326 0 255 255
9.0241 1.05689 0.789326 0 255 255
9.02737 1.02854 0.789326 0 255 255
9.03056 1.00017 0.789326 0 255 255
9.03366 0.971799 0.789326 0 255 255
9.03667 0.943412 0.789326 0 255 255
9.03943 0.916597 0.789326 0 255 255
9.04226 0.888196 0.789326 0 255 255
9.04486 0.86136 0.789326 0 255 255
9.04766 0.831364 0.789326 0 255 255
9.05023 0.802933 0.789326 0 255 255
9.05271 0.774503 0.789326 0 255 255
9.0551 0.746057 0.789326 0 255 255
9.05739 0.717603 0.789326 0 255 255
9.06942 0.691485 0.790192 0 255 255
9.06161 0.66226 0.789326 0 255 255
9.06365 0.633795 0.789326 0 255 255
9.07553 0.605979 0.790192 0 255 255
9.07739 0.577462 0.790192 0 255 255
9.07916 0.548943 0.790192 0 255 255
9.08084 0.520419 0.790192 0 255 255
9.08243 0.491886 0.790192 0 255 255
9.08393 0.463352 0.790192 0 255 255
9.08534 0.434809 0.790192 0 255 255
9.08659 0.407852 0.790192 0 255 255
9.08783 0.379306 0.790192 0 255 255
9.08897 0.350751 0.790192 0 255 255
9.09999 0.32255 0.791057 0 255 255
9.10096 0.293957 0.791057 0 255 255
9.10184 0.265366 0.791057 0 255 255
9.11258 0.237031 0.791923 0 255 255
9.11328 0.2084 0.791923 0 255 255
9.11389 0.17977 0.791923 0 255 255
9.11441 0.151135 0.791923 0 255 255
9.10486 0.123957 0.791057 0 255 255
2.50051 0.01833 0.217238 0 255 255
2.50056 0.010475 0.217238 0 255 255
2.49062 0.002608 0.216372 0 255 255
2.48065 -0.005195 0.215507 0 255 255
2.48062 -0.012989 0.215507 0 255 255
2.47061 -0.020698 0.214641 0 255 255
2.47053 -0.02846 0.214641 0 255 255
2.47043 -0.036221 0.214641 0 255 255
2.4703 -0.043982 0.214641 0 255 255
2.47015 -0.051742 0.214641 0 255 255
2.46998 -0.059502 0.214641 0 255 255
2.47974 -0.067533 0.215507 0 255 255
2.47953 -0.07489 0.215507 0 255 255
2.48923 -0.083011 0.216372 0 255 255
2.49892 -0.091194 0.217238 0 255 255
2.49862 -0.099045 0.217238 0 255 255
2.4983 -0.106894 0.217238 0 255 255
2.49795 -0.114742 0.217238 0 255 255
2.49758 -0.122589 0.217238 0 255 255
2.49718 -0.130434 0.217238 0 255 255
2.5067 -0.13883 0.218103 0 255 255
2.49631 -0.146122 0.217238 0 255 255
2.49586 -0.153528 0.217238 0 255 255
2.50531 -0.162011 0.218103 0 255 255
2.49485 -0.169207 0.217238 0 255 255
2.49431 -0.177044 0.217238 0 255 255
2.50367 -0.185616 0.218103 0 255 255
2.49314 -0.192712 0.217238 0 255 255
2.50246 -0.201343 0.218103 0 255 255
2.50181 -0.209204 0.218103 0 255 255
2.51107 -0.217924 0.218969 0 255 255
2.52029 -0.226704 0.219834 0 255 255
2.52949 -0.235544 0.2207 0 255 255
2.51882 -0.242535 0.219834 0 255 255
2.51809 -0.250007 0.219834 0 255 255
2.5272 -0.258932 0.2207 0 255 255
2.52638 -0.26687 0.2207 0 255 255
2.53543 -0.275883 0.221565 0 255 255
2.51475 -0.28163 0.219834 0 255 255
2.52375 -0.290669 0.2207 0 255 255
2.52287 -0.298155 0.2207 0 255 255
2.53182 -0.30728 0.221565 0 255 255
2.54072 -0.316464 0.222431 0 255 255
2.55948 -0.326969 0.224162 0 255 255
2.54856 -0.333715 0.223296 0 255 255
2.54744 -0.342164 0.223296 0 255 255
2.52668 -0.34701 0.221565 0 255 255
2.54531 -0.357719 0.223296 0 255 255
2.56389 -0.368549 0.225027 0 255 255
2.58243 -0.379499 0.226758 0 255 255
2.58123 -0.38761 0.226758 0 255 255
2.59969 -0.398738 0.228489 0 255 255
2.59843 -0.406903 0.228489 0 255 255
2.62665 -0.419781 0.231086 0 255 255
2.62539 -0.427572 0.231086 0 255 255
2.62403 -0.435818 0.231086 0 255 255
2.6423 -0.447386 0.232817 0 255 255
2.66052 -0.459073 0.234548 0 255 255
2.65906 -0.467429 0.234548 0 255 255
9.31623 -1.66786 0.822215 0 255 255
9.31095 -1.69712 0.822215 0 255 255
9.30557 -1.72636 0.822215 0 255 255
9.30989 -1.75744 0.82308 0 255 255
9.31411 -1.78856 0.823946 0 255 255
9.31822 -1.81972 0.824811 0 255 255
9.31246 -1.84898 0.824811 0 255 255
9.31637 -1.8802 0.825677 0 255 255
9.32017 -1.91146 0.826542 0 255 255
9.32388 -1.94276 0.827408 0 255 255
9.32747 -1.97411 0.828273 0 255 255
9.33132 -2.00387 0.829139 0 255 255
9.33471 -2.0353 0.830004 0 255 255
9.33799 -2.06676 0.83087 0 255 255
9.34118 -2.09827 0.831735 0 255 255
9.33454 -2.12761 0.831735 0 255 255
9.35693 -2.16366 0.834332 0 255 255
9.35978 -2.19532 0.835197 0 255 255
9.35284 -2.22471 0.835197 0 255 255
9.35549 -2.25642 0.836063 0 255 255
9.36771 -2.29053 0.837793 0 255 255
9.36047 -2.31995 0.837793 0 255 255
9.36279 -2.35177 0.838659 0 255 255
9.36501 -2.38363 0.839525 0 255 255
9.37677 -2.41802 0.841255 0 255 255
9.3792 -2.44834 0.842121 0 255 255
9.38109 -2.48034 0.842986 0 255 255
9.38288 -2.51238 0.843852 0 255 255
9.38455 -2.54445 0.844718 0 255 255
9.38612 -2.57656 0.845583 0 255 255
9.39718 -2.61137 0.847314 0 255 255
9.39852 -2.64357 0.848179 0 255 255
9.39975 -2.67581 0.849045 0 255 255
9.41044 -2.71085 0.850776 0 255 255
9.41144 -2.74319 0.851641 0 255 255
9.41282 -2.77391 0.852507 0 255 255
9.4136 -2.80632 0.853372 0 255 255
9.41378 -2.8404 0.854238 0 255 255
9.42387 -2.87577 0.855969 0 255 255
9.42431 -2.9083 0.856834 0 255 255
9.42464 -2.94086 0.8577 0 255 255
9.42485 -2.97345 0.858565 0 255 255
9.43445 -3.0091 0.860296 0 255 255
9.44444 -3.04319 0.862027 0 255 255
9.44431 -3.07593 0.862893 0 255 255
9.44406 -3.1087 0.863758 0 255 255
9.4437 -3.1415 0.864624 0 255 255
9.45267 -3.1775 0.866355 0 255 255
9.45208 -3.21039 0.86722 0 255 255
9.46079 -3.24653 0.868951 0 255 255
9.45996 -3.2795 0.869817 0 255 255
9.45901 -3.3125 0.870682 0 255 255
9.46734 -3.34884 0.872413 0 255 255
9.46616 -3.38192 0.873279 0 255 255
9.47423 -3.41841 0.87501 0 255 255
9.49152 -3.45838 0.877606 0 255 255
9.49931 -3.49506 0.879337 0 255 255
9.49762 -3.52836 0.880203 0 255 255
9.50515 -3.56518 0.881933 0 255 255
9.4939 -3.59502 0.881933 0 255 255
9.50117 -3.63194 0.883664 0 255 255
9.50894 -3.66729 0.885395 0 255 255
9.49737 -3.69714 0.885395 0 255 255
9.50426 -3.73425 0.887126 0 255 255
9.511 -3.77143 0.888857 0 255 255
9.50835 -3.805 0.889723 0 255 255
9.52407 -3.84604 0.892319 0 255 255
9.53039 -3.88346 0.89405 0 255 255
9.53657 -3.92096 0.895781 0 255 255
9.54261 -3.95853 0.897512 0 255 255
9.54851 -3.99619 0.899243 0 255 255
9.54508 -4.03004 0.900109 0 255 255
9.55071 -4.06781 0.90184 0 255 255
9.53788 -4.0978 0.90184 0 255 255
9.54324 -4.13566 0.903571 0 255 255
9.54846 -4.1736 0.905302 0 255 255
9.52618 -4.19956 0.904436 0 255 255
9.56756 -4.25375 0.909629 0 255 255
9.58142 -4.29602 0.912226 0 255 255
9.58604 -4.3343 0.913957 0 255 255
9.58144 -4.36853 0.914822 0 255 255
9.58577 -4.40693 0.916553 0 255 255
9.57188 -4.43703 0.916553 0 255 255
9.57672 -4.47384 0.918284 0 255 255
9.58065 -4.51239 0.920015 0 255 255
9.58442 -4.55102 0.921746 0 255 255
9.56109 -4.5768 0.92088 0 255 255
9.60947 -4.63713 0.926939 0 255 255
9.5832 -4.73631 0.92867 0 255 255
9.58611 -4.77528 0.930401 0 255 255
9.62448 -4.83219 0.935594 0 255 255
9.62703 -4.8714 0.937325 0 255 255
9.62943 -4.91068 0.939056 0 255 255
9.60039 -5.01043 0.940787 0 255 255
9.62869 -5.06375 0.945114 0 255 255
9.60393 -5.08931 0.944249 0 255 255
9.64941 -5.1523 0.950307 0 255 255
9.65949 -5.19675 0.952904 0 255 255
9.65188 -5.23182 0.953769 0 255 255
9.66255 -5.27476 0.956366 0 255 255
9.64593 -5.30509 0.956366 0 255 255
9.65629 -5.34816 0.958962 0 255 255
9.63756 -5.38184 0.958962 0 255 255
9.67365 -5.43971 0.964155 0 255 255
9.67385 -5.47989 0.965886 0 255 255
9.68255 -5.52507 0.968482 0 255 255
9.65586 -5.63113 0.971079 0 255 255
9.68967 -5.69172 0.976272 0 255 255
9.68889 -5.73228 0.978003 0 255 255
9.70506 -5.78308 0.981465 0 255 255
9.70393 -5.8238 0.983196 0 255 255
9.68259 -5.93582 0.986658 0 255 255
9.71476 -5.99761 0.991851 0 255 255
9.72125 -6.04388 0.994447 0 255 255
9.72754 -6.09025 0.997043 0 255 255
9.72522 -6.13141 0.998775 0 255 255
9.71726 -6.25515 1.00397 0 255 255
9.73936 -6.31274 1.0083 0 255 255
9.73617 -6.3542 1.01003 0 255 255
9.74946 -6.40663 1.01349 0 255 255
9.7459 -6.44823 1.01522 0 255 255
9.7599 -6.4992 1.01868 0 255 255
9.76425 -6.54647 1.02128 0 255 255
9.74364 -6.57712 1.02128 0 255 255
9.77237 -6.64129 1.02647 0 255 255
9.78434 -6.69446 1.02993 0 255 255
9.79608 -6.74778 1.03339 0 255 255
9.79121 -6.78987 1.03513 0 255 255
9.79433 -6.83771 1.03772 0 255 255
9.80541 -6.89136 1.04118 0 255 255
9.80811 -6.93939 1.04378 0 255 255
9.8106 -6.98751 1.04638 0 255 255
9.82099 -7.04151 1.04984 0 255 255
9.82305 -7.08982 1.05244 0 255 255
9.83297 -7.14407 1.0559 0 255 255
9.8346 -7.19257 1.05849 0 255 255
9.83603 -7.24115 1.06109 0 255 255
9.83724 -7.28981 1.06369 0 255 255
9.84624 -7.3445 1.06715 0 255 255
9.84701 -7.39335 1.06974 0 255 255
9.84758 -7.44227 1.07234 0 255 255
9.85587 -7.49729 1.0758 0 255 255
9.856 -7.54639 1.0784 0 255 255
9.85591 -7.59556 1.081 0 255 255
9.87136 -7.65701 1.08532 0 255 255
9.87082 -7.70638 1.08792 0 255 255
9.87789 -7.76197 1.09138 0 255 255
9.88471 -7.81769 1.09484 0 255 255
9.89128 -7.87352 1.09831 0 255 255
9.88982 -7.92324 1.1009 0 255 255
9.8959 -7.97929 1.10436 0 255 255
9.90947 -8.04173 1.10869 0 255 255
9.88415 -8.07282 1.10869 0 255 255
9.92174 -8.15271 1.11562 0 255 255
11.0955 -9.23458 1.25409 0 255 255
11.013 -9.22461 1.24803 0 255 255
10.9763 -9.25274 1.24717 0 255 255
10.9092 -9.25495 1.24284 0 255 255
10.8573 -9.26977 1.24025 0 255 255
10.8055 -9.28436 1.23765 0 255 255
7.47557 -6.46414 0.858565 0 255 255
7.47778 -6.50721 0.861162 0 255 255
7.43481 -6.51098 0.858565 0 255 255
7.38442 -6.50796 0.855103 0 255 255
7.34158 -6.51129 0.852507 0 255 255
7.30622 -6.52106 0.850776 0 255 255
7.26347 -6.524 0.848179 0 255 255
7.22701 -6.53469 0.846448 0 255 255
7.17811 -6.52929 0.842986 0 255 255
7.13552 -6.53163 0.84039 0 255 255
7.10031 -6.54051 0.838659 0 255 255
7.06512 -6.54924 0.836928 0 255 255
7.02265 -6.55102 0.834332 0 255 255
6.98025 -6.55259 0.831735 0 255 255
6.94514 -6.56081 0.830004 0 255 255
6.90283 -6.562 0.827408 0 255 255
6.86779 -6.56988 0.825677 0 255 255
6.83276 -6.57761 0.823946 0 255 255
6.79059 -6.57825 0.821349 0 255 255
6.74849 -6.57868 0.818753 0 255 255
6.70646 -6.57892 0.816156 0 255 255
6.67158 -6.58596 0.814425 0 255 255
6.63672 -6.59284 0.812694 0 255 255
6.60188 -6.59958 0.810963 0 255 255
6.56707 -6.60615 0.809232 0 255 255
6.52528 -6.60549 0.806636 0 255 255
6.48356 -6.60463 0.804039 0 255 255
6.44886 -6.6107 0.802308 0 255 255
6.44886 -6.65239 0.804905 0 255 255
6.45558 -6.70131 0.808367 0 255 255
6.45516 -6.74315 0.810963 0 255 255
4.99197 -5.24759 0.629211 0 255 255
4.98915 -5.27773 0.630942 0 255 255
6.48222 -7.0321 0.83087 0 255 255
6.49374 -7.08916 0.835197 0 255 255
6.50497 -7.14637 0.839525 0 255 255
6.50254 -7.18893 0.842121 0 255 255
5.0947 -5.66817 0.662099 0 255 255
5.09014 -5.69901 0.66383 0 255 255
5.0656 -5.70752 0.662965 0 255 255
5.01469 -5.68605 0.658637 0 255 255
4.98367 -5.68679 0.656906 0 255 255
4.97887 -5.71744 0.658637 0 255 255
4.98696 -5.76319 0.662099 0 255 255
4.95583 -5.76372 0.660368 0 255 255
4.94417 -5.78684 0.661234 0 255 255
4.95821 -5.84032 0.665561 0 255 255
4.93984 -5.85587 0.665561 0 255 255
4.94061 -5.89426 0.668158 0 255 255
4.92845 -5.91741 0.669023 0 255 255
4.0206 -4.85835 0.547855 0 255 255
3.96735 -4.82478 0.542662 0 255 255
3.97739 -4.86808 0.546124 0 255 255
3.96208 -4.88055 0.546124 0 255 255
3.9159 -4.91768 0.546124 0 255 255
3.91984 -4.95271 0.54872 0 255 255
3.88579 -4.94151 0.546124 0 255 255
3.88865 -4.97724 0.54872 0 255 255
3.86688 -4.98156 0.547855 0 255 255
3.85034 -4.99436 0.547855 0 255 255
3.84069 -5.01434 0.54872 0 255 255
3.83699 -5.04224 0.550451 0 255 255
3.81512 -5.04632 0.549586 0 255 255
3.79326 -5.05031 0.54872 0 255 255
3.78929 -5.07818 0.550451 0 255 255
3.77332 -5.09005 0.550451 0 255 255
3.75731 -5.10188 0.550451 0 255 255
3.7295 -5.09758 0.54872 0 255 255
3.6549 -5.02869 0.540065 0 255 255
3.60992 -4.99976 0.535738 0 255 255
3.63484 -5.06774 0.541796 0 255 255
3.6189 -5.07913 0.541796 0 255 255
3.60868 -5.09861 0.542662 0 255 255
3.59265 -5.10992 0.542662 0 255 255
3.58228 -5.12935 0.543527 0 255 255
3.56615 -5.14058 0.543527 0 255 255
3.54998 -5.15176 0.543527 0 255 255
3.54594 -5.17871 0.545258 0 255 255
3.53525 -5.19806 0.546124 0 255 255
3.52357 -5.21801 0.546989 0 255 255
3.50716 -5.22906 0.546989 0 255 255
3.50176 -5.25663 0.54872 0 255 255
3.49073 -5.27592 0.549586 0 255 255
3.47961 -5.29518 0.550451 0 255 255
3.4684 -5.31443 0.551317 0 255 255
3.4571 -5.33366 0.552182 0 255 255
3.44572 -5.35287 0.553048 0 255 255
3.43426 -5.37206 0.553913 0 255 255
3.4227 -5.39124 0.554779 0 255 255
3.41637 -5.41882 0.55651 0 255 255
3.40462 -5.43797 0.557375 0 255 255
3.39804 -5.46556 0.559106 0 255 255
3.39655 -5.50164 0.561702 0 255 255
3.38967 -5.52927 0.563433 0 255 255
5.93646 -9.75225 0.991851 0 255 255
5.93671 -9.82201 0.997043 0 255 255
5.89557 -9.82352 0.995313 0 255 255
5.85958 -9.83344 0.994447 0 255 255
5.81851 -9.83465 0.992716 0 255 255
5.78254 -9.84429 0.991851 0 255 255
5.74155 -9.84519 0.99012 0 255 255
5.70061 -9.84594 0.988389 0 255 255
5.65972 -9.84653 0.986658 0 255 255
5.62382 -9.85561 0.985792 0 255 255
5.58301 -9.85589 0.984061 0 255 255
5.54713 -9.8647 0.983196 0 255 255
5.5064 -9.86468 0.981465 0 255 255
5.47056 -9.87321 0.980599 0 255 255
5.42991 -9.87289 0.978868 0 255 255
5.39409 -9.88116 0.978003 0 255 255
5.35353 -9.88054 0.976272 0 255 255
5.31303 -9.87976 0.974541 0 255 255
5.27728 -9.88761 0.973675 0 255 255
5.23686 -9.88653 0.971944 0 255 255
5.20114 -9.89412 0.971079 0 255 255
5.16081 -9.89274 0.969348 0 255 255
5.12513 -9.90006 0.968482 0 255 255
5.08945 -9.90725 0.967617 0 255 255
5.05378 -9.91432 0.966751 0 255 255
5.01361 -9.91236 0.96502 0 255 255
4.97798 -9.91916 0.964155 0 255 255
4.94235 -9.92583 0.963289 0 255 255
4.90232 -9.92345 0.961558 0 255 255
4.86673 -9.92985 0.960693 0 255 255
4.8268 -9.92717 0.958962 0 255 255
4.79126 -9.93332 0.958097 0 255 255
4.75573 -9.93933 0.957231 0 255 255
4.72448 -9.95422 0.957231 0 255 255
4.6847 -9.95099 0.9555 0 255 255
4.6492 -9.95663 0.954635 0 255 255
4.61371 -9.96215 0.953769 0 255 255
4.57408 -9.95849 0.952038 0 255 255
4.53864 -9.96374 0.951173 0 255 255
4.50731 -9.97795 0.951173 0 255 255
4.4678 -9.97388 0.949442 0 255 255
4.42836 -9.96965 0.947711 0 255 255
4.393 -9.9744 0.946845 0 255 255
4.35765 -9.97902 0.94598 0 255 255
4.32232 -9.98352 0.945114 0 255 255
4.28701 -9.9879 0.944249 0 255 255
4.25171 -9.99215 0.943383 0 255 255
4.21642 -9.99627 0.942518 0 255 255
4.185 -10.0095 0.942518 0 255 255
4.14797 -10.0141 0.941652 0 255 255
4.10892 -10.0086 0.939921 0 255 255
4.07571 -10.0222 0.939921 0 255 255
4.04223 -10.025 0.939056 0 255 255
4.00877 -10.0277 0.93819 0 255 255
3.97358 -10.031 0.937325 0 255 255
3.93841 -10.0342 0.936459 0 255 255
3.90325 -10.0372 0.935594 0 255 255
3.86812 -10.0401 0.934728 0 255 255
3.83301 -10.0429 0.933863 0 255 255
3.79616 -10.0462 0.932997 0 255 255
3.76109 -10.0488 0.932132 0 255 255
3.72604 -10.0512 0.931266 0 255 255
3.69101 -10.0535 0.930401 0 255 255
3.656 -10.0557 0.929535 0 255 255
3.62439 -10.0671 0.929535 0 255 255
3.5894 -10.0691 0.92867 0 255 255
3.55444 -10.0709 0.927804 0 255 255
3.5195 -10.0726 0.926939 0 255 255
3.48783 -10.0836 0.926939 0 255 255
3.45291 -10.0851 0.926073 0 255 255
3.41801 -10.0865 0.925208 0 255 255
3.38631 -10.0972 0.925208 0 255 255
3.34829 -10.0889 0.923477 0 255 255
3.31658 -10.0993 0.923477 0 255 255
3.28176 -10.1002 0.922611 0 255 255
3.24696 -10.101 0.921746 0 255 255
3.2122 -10.1017 0.92088 0 255 255
3.18045 -10.1117 0.92088 0 255 255
3.1457 -10.1121 0.920015 0 255 255
3.11099 -10.1124 0.91915 0 255 255
3.07921 -10.1222 0.91915 0 255 255
3.04452 -10.1222 0.918284 0 255 255
3.01271 -10.1318 0.918284 0 255 255
2.97805 -10.1316 0.917418 0 255 255
2.94343 -10.1314 0.916553 0 255 255
2.90707 -10.1315 0.915688 0 255 255
2.87523 -10.1406 0.915688 0 255 255
2.77079 -9.89053 0.892319 0 255 255
2.72908 -9.86078 0.888857 0 255 255
2.70334 -9.88852 0.890588 0 255 255
2.7216 -10.0797 0.907033 0 255 255
2.70966 -10.1551 0.913091 0 255 255
2.67775 -10.1636 0.913091 0 255 255
2.64329 -10.1623 0.912226 0 255 255
2.61136 -10.1706 0.912226 0 255 255
2.57939 -10.1787 0.912226 0 255 255
2.54499 -10.1771 0.91136 0 255 255
2.51122 -10.1855 0.91136 0 255 255
2.47686 -10.1836 0.910495 0 255 255
2.44075 -10.1821 0.909629 0 255 255
2.41053 -10.1893 0.909629 0 255 255
2.37802 -10.1867 0.908764 0 255 255
2.34601 -10.1941 0.908764 0 255 255
2.31219 -10.2019 0.908764 0 255 255
2.27796 -10.1993 0.907898 0 255 255
2.2459 -10.2065 0.907898 0 255 255
2.21383 -10.2135 0.907898 0 255 255
2.17965 -10.2106 0.907033 0 255 255
2.14551 -10.2077 0.906167 0 255 255
2.11343 -10.2144 0.906167 0 255 255
2.08133 -10.2209 0.906167 0 255 255
2.04726 -10.2177 0.905302 0 255 255
2.01515 -10.2241 0.905302 0 255 255
1.98302 -10.2303 0.905302 0 255 255
1.949 -10.2267 0.904436 0 255 255
1.91686 -10.2328 0.904436 0 255 255
1.88471 -10.2388 0.904436 0 255 255
1.85076 -10.2348 0.903571 0 255 255
1.82034 -10.2504 0.904436 0 255 255
1.78642 -10.2463 0.903571 0 255 255
1.75422 -10.2518 0.903571 0 255 255
1.722 -10.2573 0.903571 0 255 255
1.68977 -10.2626 0.903571 0 255 255
1.65752 -10.2679 0.903571 0 255 255
1.62525 -10.2731 0.903571 0 255 255
1.59145 -10.2683 0.902705 0 255 255
1.55918 -10.2732 0.902705 0 255 255
1.5269 -10.2781 0.902705 0 255 255
1.4946 -10.2828 0.902705 0 255 255
1.46229 -10.2875 0.902705 0 255 255
1.42859 -10.2821 0.90184 0 255 255
1.39628 -10.2866 0.90184 0 255 255
1.36396 -10.2909 0.90184 0 255 255
1.33162 -10.2951 0.90184 0 255 255
1.29927 -10.2993 0.90184 0 255 255
1.26691 -10.3033 0.90184 0 255 255
1.23454 -10.3072 0.90184 0 255 255
1.20215 -10.3111 0.90184 0 255 255
1.16975 -10.3148 0.90184 0 255 255
1.13734 -10.3184 0.90184 0 255 255
1.10492 -10.3219 0.90184 0 255 255
1.07249 -10.3254 0.90184 0 255 255
1.04004 -10.3287 0.90184 0 255 255
1.00759 -10.3319 0.90184 0 255 255
0.974189 -10.3251 0.900974 0 255 255
0.379878 -4.47699 0.390336 0 255 255
0.30028 -3.68386 0.321096 0 255 255
0.289483 -3.69472 0.321962 0 255 255
0.277874 -3.69561 0.321962 0 255 255
0.265547 -3.68653 0.321096 0 255 255
0.141212 -2.25707 0.196466 0 255 255
0.134711 -2.26745 0.197332 0 255 255
0.127028 -2.25791 0.196466 0 255 255
0.118877 -2.2384 0.194735 0 255 255
0.111347 -2.22882 0.19387 0 255 255
0.104344 -2.22915 0.19387 0 255 255
0.097341 -2.22947 0.19387 0 255 255
0.08953 -2.20986 0.192139 0 255 255
0.082587 -2.21013 0.192139 0 255 255
0.074961 -2.19046 0.190408 0 255 255
0.06777 -2.18073 0.189542 0 255 255
0.060919 -2.18093 0.189542 0 255 255
0.054067 -2.18111 0.189542 0 255 255
0.047215 -2.18127 0.189542 0 255 255
0.040177 -2.17145 0.188677 0 255 255
0.033355 -2.17156 0.188677 0 255 255
0.02629 -2.15173 0.186946 0 255 255
0.01962 -2.16177 0.187811 0 255 255
0.012394 -2.15186 0.186946 0 255 255
0.005981 -2.14192 0.18608 0 255 255
-0.000748 -2.14193 0.18608 0 255 255
-0.007477 -2.14192 0.18608 0 255 255
-0.014206 -2.14189 0.18608 0 255 255
-0.02074 -2.12191 0.184349 0 255 255
-0.027535 -2.13179 0.185215 0 255 255
-0.034231 -2.1317 0.185215 0 255 255
-0.040928 -2.13158 0.185215 0 255 255
-0.047625 -2.13144 0.185215 0 255 255
-0.054321 -2.13128 0.185215 0 255 255
-0.061016 -2.1311 0.185215 0 255 255
-0.068027 -2.14085 0.18608 0 255 255
-0.074405 -2.13067 0.185215 0 255 255
-0.080719 -2.12047 0.184349 0 255 255
-0.088162 -2.13015 0.185215 0 255 255
-0.094411 -2.11991 0.184349 0 255 255
-0.101544 -2.12955 0.185215 0 255 255
-0.108234 -2.12922 0.185215 0 255 255
-0.114923 -2.12887 0.185215 0 255 255
-0.122178 -2.13844 0.18608 0 255 255
-0.128896 -2.13805 0.18608 0 255 255
-0.134982 -2.12769 0.185215 0 255 255
-0.142327 -2.1372 0.18608 0 255 255
-0.149041 -2.13674 0.18608 0 255 255
-0.155753 -2.13626 0.18608 0 255 255
-0.162463 -2.13576 0.18608 0 255 255
-0.168385 -2.12531 0.185215 0 255 255
-0.17588 -2.1347 0.18608 0 255 255
-0.182585 -2.13414 0.18608 0 255 255
-0.190169 -2.14348 0.186946 0 255 255
-0.197813 -2.15279 0.187811 0 255 255
-0.204576 -2.15216 0.187811 0 255 255
-0.21231 -2.16142 0.188677 0 255 255
-0.219099 -2.16074 0.188677 0 255 255
-0.227301 -2.16991 0.189542 0 255 255
-0.234117 -2.16918 0.189542 0 255 255
-0.242031 -2.17834 0.190408 0 255 255
-0.250004 -2.18747 0.191273 0 255 255
-0.258037 -2.19656 0.192139 0 255 255
-0.26613 -2.20564 0.193004 0 255 255
-0.274282 -2.21467 0.19387 0 255 255
-0.281239 -2.2138 0.19387 0 255 255
-0.289479 -2.22279 0.194735 0 255 255
-0.492246 -3.60283 0.315904 0 255 255
-0.517358 -3.69993 0.324558 0 255 255
-0.538853 -3.76732 0.330617 0 255 255
-0.552127 -3.77547 0.331482 0 255 255
-0.563985 -3.77372 0.331482 0 255 255
-0.577342 -3.78177 0.332348 0 255 255
-0.587686 -3.7701 0.331482 0 255 255
-0.601092 -3.77807 0.332348 0 255 255
-0.612299 -3.77627 0.332348 0 255 255
-0.624159 -3.77433 0.332348 0 255 255
-0.638331 -3.78206 0.333213 0 255 255
-0.650209 -3.78004 0.333213 0 255 255
-0.662081 -3.77798 0.333213 0 255 255
-0.675697 -3.78569 0.334079 0 255 255
-0.687587 -3.78355 0.334079 0 255 255
-0.69947 -3.78137 0.334079 0 255 255
-0.713189 -3.78894 0.334944 0 255 255
-0.723215 -3.7769 0.334079 0 255 255
-0.736981 -3.78438 0.334944 0 255 255
-0.748866 -3.78205 0.334944 0 255 255
-1.52345 -7.56913 0.670754 0 255 255
-1.54922 -7.57406 0.67162 0 255 255
-1.57504 -7.57891 0.672485 0 255 255
-1.59884 -7.57393 0.672485 0 255 255
-1.6268 -7.58835 0.674216 0 255 255
-1.65063 -7.5832 0.674216 0 255 255
-1.6723 -7.56825 0.673351 0 255 255
-1.69825 -7.57268 0.674216 0 255 255
-0.320289 -1.36771 0.122034 0 255 255
-0.326886 -1.37639 0.122899 0 255 255
-0.326544 -1.35598 0.121168 0 255 255
-0.330802 -1.35495 0.121168 0 255 255
-0.327878 -1.32489 0.118572 0 255 255
-0.329614 -1.31419 0.117707 0 255 255
-0.323925 -1.27453 0.114245 0 255 255
-0.32296 -1.25421 0.112514 0 255 255
-0.324383 -1.24355 0.111648 0 255 255
-0.330833 -1.25215 0.112514 0 255 255
-0.33219 -1.24148 0.111648 0 255 255
-0.336089 -1.24044 0.111648 0 255 255
-0.339984 -1.23937 0.111648 0 255 255
-0.343876 -1.2383 0.111648 0 255 255
-0.347765 -1.23721 0.111648 0 255 255
-0.357102 -1.25528 0.113379 0 255 255
-0.358287 -1.24458 0.112514 0 255 255
-0.35941 -1.23388 0.111648 0 255 255
-0.3661 -1.2423 0.112514 0 255 255
-0.372847 -1.25069 0.113379 0 255 255
-0.376775 -1.24951 0.113379 0 255 255
-0.380916 -1.24826 0.113379 0 255 255
-0.381682 -1.2376 0.112514 0 255 255
-0.385568 -1.2364 0.112514 0 255 255
-0.392664 -1.24461 0.113379 0 255 255
-0.393545 -1.23388 0.112514 0 255 255
-0.400476 -1.24212 0.113379 0 255 255
-0.404376 -1.24086 0.113379 0 255 255
-0.405156 -1.23012 0.112514 0 255 255
-0.409018 -1.22884 0.112514 0 255 255
-0.416053 -1.23699 0.113379 0 255 255
-0.419937 -1.23568 0.113379 0 255 255
-0.423817 -1.23435 0.113379 0 255 255
-0.427693 -1.23301 0.113379 0 255 255
-0.434858 -1.24107 0.114245 0 255 255
-0.435431 -1.2303 0.113379 0 255 255
-0.442648 -1.23831 0.114245 0 255 255
-0.443153 -1.22754 0.113379 0 255 255
-0.450419 -1.2355 0.114245 0 255 255
-0.454299 -1.23408 0.114245 0 255 255
-0.461644 -1.24199 0.11511 0 255 255
-0.462044 -1.2312 0.114245 0 255 255
-0.469439 -1.23906 0.11511 0 255 255
-0.473329 -1.23758 0.11511 0 255 255
-0.480803 -1.24538 0.115976 0 255 255
-0.477692 -1.22522 0.114245 0 255 255
-0.499558 -1.27015 0.118572 0 255 255
-0.492519 -1.2408 0.115976 0 255 255
-0.496414 -1.23924 0.115976 0 255 255
-0.500305 -1.23768 0.115976 0 255 255
-0.492903 -1.20843 0.113379 0 255 255
-0.511863 -1.24372 0.116841 0 255 255
-0.515985 -1.24202 0.116841 0 255 255
-0.516033 -1.2312 0.115976 0 255 255
-0.519899 -1.22958 0.115976 0 255 255
-0.531576 -1.24626 0.117707 0 255 255
-0.531336 -1.23553 0.116841 0 255 255
-0.53125 -1.22471 0.115976 0 255 255
-0.543082 -1.24129 0.117707 0 255 255
-0.538935 -1.22135 0.115976 0 255 255
-0.547034 -1.22866 0.116841 0 255 255
-0.546811 -1.21784 0.115976 0 255 255
-0.558852 -1.23427 0.117707 0 255 255
-0.55859 -1.22345 0.116841 0 255 255
-0.570546 -1.23989 0.118572 0 255 255
-0.574438 -1.23809 0.118572 0 255 255
-0.578541 -1.23618 0.118572 0 255 255
-0.578171 -1.22534 0.117707 0 255 255
-0.582231 -1.22342 0.117707 0 255 255
-0.594473 -1.23965 0.119438 0 255 255
-0.602701 -1.24675 0.120303 0 255 255
-0.597887 -1.22694 0.118572 0 255 255
-0.606131 -1.23399 0.119438 0 255 255
-0.605584 -1.22316 0.118572 0 255 255
-0.61832 -1.23907 0.120303 0 255 255
-0.62221 -1.23713 0.120303 0 255 255
-0.626093 -1.23517 0.120303 0 255 255
-0.629971 -1.23319 0.120303 0 255 255
-0.638402 -1.24006 0.121168 0 255 255
-0.642294 -1.23805 0.121168 0 255 255
-0.650796 -1.24486 0.122034 0 255 255
-4.14781 -7.81405 0.768554 0 255 255
-4.17703 -7.80977 0.76942 0 255 255
-4.44258 -8.24388 0.81356 0 255 255
-4.47797 -8.24739 0.815291 0 255 255
-4.51342 -8.25076 0.817022 0 255 255
-4.54413 -8.24527 0.817887 0 255 255
-4.57484 -8.23966 0.818753 0 255 255
-0.16856 -0.270593 0.027696 0 255 255
-0.153527 -0.244744 0.025099 0 255 255
-0.180898 -0.286374 0.029427 0 255 255
-0.160409 -0.25218 0.025965 0 255 255
-0.182694 -0.285232 0.029427 0 255 255
-0.156591 -0.242795 0.025099 0 255 255
-0.157353 -0.242302 0.025099 0 255 255
-0.163565 -0.250144 0.025965 0 255 255
-0.147915 -0.224666 0.023368 0 255 255
-0.14862 -0.224201 0.023368 0 255 255
-0.143793 -0.215446 0.022503 0 255 255
-0.150026 -0.223262 0.023368 0 255 255
-0.145144 -0.214538 0.022503 0 255 255
-0.140245 -0.205823 0.021637 0 255 255
-0.146527 -0.213597 0.022503 0 255 255
-0.15852 -0.22953 0.024234 0 255 255
-0.170614 -0.245391 0.025965 0 255 255
-0.171384 -0.244853 0.025965 0 255 255
-0.172153 -0.244314 0.025965 0 255 255
-0.184448 -0.260023 0.027696 0 255 255
-0.179474 -0.251335 0.02683 0 255 255
-0.168633 -0.234591 0.025099 0 255 255
-0.18105 -0.250202 0.02683 0 255 255
-0.146641 -0.201316 0.021637 0 255 255
-0.153164 -0.208889 0.022503 0 255 255
-0.153819 -0.208407 0.022503 0 255 255
-0.160414 -0.215919 0.023368 0 255 255
-0.137226 -0.183501 0.019906 0 255 255
-0.131811 -0.17511 0.019041 0 255 255
-0.13236 -0.174695 0.019041 0 255 255
-0.13895 -0.1822 0.019906 0 255 255
-0.151654 -0.197568 0.021637 0 255 255
-0.158365 -0.204974 0.022503 0 255 255
-0.159008 -0.204475 0.022503 0 255 255
-0.147369 -0.188284 0.020772 0 255 255
-0.147959 -0.18782 0.020772 0 255 255
-0.142359 -0.179548 0.019906 0 255 255
-0.155351 -0.194674 0.021637 0 255 255
-0.155928 -0.194212 0.021637 0 255 255
-0.16906 -0.209219 0.023368 0 255 255
-0.169753 -0.208657 0.023368 0 255 255
-0.176719 -0.215831 0.024234 0 255 255
-0.17106 -0.207587 0.023368 0 255 255
-0.197151 -0.237722 0.02683 0 255 255
-0.20428 -0.24475 0.027696 0 255 255
-0.211456 -0.251735 0.028561 0 255 255
-0.212246 -0.25107 0.028561 0 255 255
-0.238856 -0.280754 0.032023 0 255 255
-0.233257 -0.272434 0.031158 0 255 255
-0.247118 -0.286794 0.032889 0 255 255
-0.234964 -0.270963 0.031158 0 255 255
-0.242365 -0.27773 0.032023 0 255 255
-0.24976 -0.284496 0.032889 0 255 255
-0.257249 -0.291176 0.033754 0 255 255
-0.251543 -0.282921 0.032889 0 255 255
-0.265716 -0.296979 0.03462 0 255 255
-0.2667 -0.296096 0.03462 0 255 255
-0.267628 -0.295257 0.03462 0 255 255
-0.268555 -0.294414 0.03462 0 255 255
-0.276215 -0.300909 0.035485 0 255 255
-0.277159 -0.300039 0.035485 0 255 255
-0.278101 -0.299167 0.035485 0 255 255
-0.285845 -0.305567 0.036351 0 255 255
-0.293632 -0.311922 0.037216 0 255 255
-0.294611 -0.310998 0.037216 0 255 255
-0.295586 -0.310071 0.037216 0 255 255
-0.296559 -0.309141 0.037216 0 255 255
-0.304448 -0.315375 0.038082 0 255 255
-0.305437 -0.314417 0.038082 0 255 255
-0.313387 -0.32058 0.038947 0 255 255
-0.32138 -0.326696 0.039813 0 255 255
-0.329413 -0.332765 0.040678 0 255 255
-0.330457 -0.331728 0.040678 0 255 255
-0.345604 -0.34476 0.042409 0 255 255
-0.374986 -0.371728 0.045871 0 255 255
-0.397443 -0.391522 0.048467 0 255 255
-0.420029 -0.411179 0.051064 0 255 255
-0.414178 -0.402911 0.050198 0 255 255
-0.429767 -0.415456 0.051929 0 255 255
-0.43107 -0.414104 0.051929 0 255 255
-0.432369 -0.412748 0.051929 0 255 255
-0.440891 -0.418244 0.052795 0 255 255
-0.456701 -0.430524 0.054526 0 255 255
-0.465322 -0.435898 0.055391 0 255 255
-0.466689 -0.434434 0.055391 0 255 255
-0.468052 -0.432966 0.055391 0 255 255
-0.476668 -0.438318 0.056257 0 255 255
-0.470688 -0.430099 0.055391 0 255 255
-0.472112 -0.428535 0.055391 0 255 255
-0.480853 -0.433723 0.056257 0 255 255
-0.482213 -0.43221 0.056257 0 255 255
-0.476129 -0.424067 0.055391 0 255 255
-0.48492 -0.429171 0.056257 0 255 255
-0.486265 -0.427646 0.056257 0 255 255
-0.495108 -0.432672 0.057122 0 255 255
-0.488943 -0.424582 0.056257 0 255 255
-0.497817 -0.429553 0.057122 0 255 255
-0.491601 -0.421502 0.056257 0 255 255
-0.492923 -0.419955 0.056257 0 255 255
-0.49424 -0.418405 0.056257 0 255 255
-0.510799 -0.429676 0.057988 0 255 255
-0.496859 -0.415291 0.056257 0 255 255
-0.505825 -0.420093 0.057122 0 255 255
-0.499458 -0.412161 0.056257 0 255 255
-0.500751 -0.41059 0.056257 0 255 255
-0.509762 -0.415307 0.057122 0 255 255
-0.503321 -0.407435 0.056257 0 255 255
-0.504598 -0.405852 0.056257 0 255 255
-0.505871 -0.404265 0.056257 0 255 255
-0.507138 -0.402674 0.056257 0 255 255
-0.508331 -0.401167 0.056257 0 255 255
-0.501749 -0.393421 0.055391 0 255 255
-0.502982 -0.391843 0.055391 0 255 255
-0.504211 -0.390261 0.055391 0 255 255
-0.513332 -0.394748 0.056257 0 255 255
-0.506653 -0.387085 0.055391 0 255 255
-0.507866 -0.385491 0.055391 0 255 255
-0.509075 -0.383894 0.055391 0 255 255
-0.510278 -0.382293 0.055391 0 255 255
-0.487501 -0.362843 0.052795 0 255 255
-0.51267 -0.379079 0.055391 0 255 255
-0.497801 -0.365671 0.05366 0 255 255
-0.498947 -0.364105 0.05366 0 255 255
-0.500088 -0.362536 0.05366 0 255 255
-0.517393 -0.372607 0.055391 0 255 255
-0.518561 -0.37098 0.055391 0 255 255
-0.527845 -0.37512 0.056257 0 255 255
-0.520882 -0.367714 0.055391 0 255 255
-0.505721 -0.354636 0.05366 0 255 255
-0.457784 -0.31888 0.048467 0 255 255
-0.450591 -0.311772 0.047602 0 255 255
-0.459779 -0.315997 0.048467 0 255 255
-0.452541 -0.308934 0.047602 0 255 255
-0.470001 -0.318693 0.049333 0 255 255
-0.462737 -0.31165 0.048467 0 255 255
-0.463713 -0.310195 0.048467 0 255 255
-0.456388 -0.303223 0.047602 0 255 255
-0.457338 -0.301788 0.047602 0 255 255
-0.474949 -0.311272 0.049333 0 255 255
-0.492623 -0.320647 0.051064 0 255 255
-0.460162 -0.297464 0.047602 0 255 255
-0.461094 -0.296017 0.047602 0 255 255
-0.462022 -0.294567 0.047602 0 255 255
-0.471362 -0.298444 0.048467 0 255 255
-0.472297 -0.296961 0.048467 0 255 255
-0.473228 -0.295476 0.048467 0 255 255
-0.474154 -0.293988 0.048467 0 255 255
-0.475075 -0.292497 0.048467 0 255 255
-0.475992 -0.291003 0.048467 0 255 255
-0.476904 -0.289506 0.048467 0 255 255
-0.486343 -0.29315 0.049333 0 255 255
-0.487262 -0.29162 0.049333 0 255 255
-0.479561 -0.285082 0.048467 0 255 255
-0.489034 -0.288638 0.049333 0 255 255
-0.498585 -0.29205 0.050198 0 255 255
-0.4995 -0.290482 0.050198 0 255 255
-0.50046 -0.288824 0.050198 0 255 255
-0.501315 -0.287338 0.050198 0 255 255
-0.502215 -0.285762 0.050198 0 255 255
-0.511785 -0.289082 0.051064 0 255 255
-0.503952 -0.282689 0.050198 0 255 255
-0.504837 -0.281104 0.050198 0 255 255
-0.497046 -0.274611 0.049333 0 255 255
-0.506642 -0.277838 0.050198 0 255 255
-0.507512 -0.276245 0.050198 0 255 255
-0.499612 -0.269914 0.049333 0 255 255
-0.500411 -0.268431 0.049333 0 255 255
-0.501252 -0.266857 0.049333 0 255 255
-0.502134 -0.265193 0.049333 0 255 255
-0.511789 -0.26824 0.050198 0 255 255
-0.50379 -0.262033 0.049333 0 255 255
-0.504611 -0.260449 0.049333 0 255 255
-0.505427 -0.258863 0.049333 0 255 255
-0.497356 -0.25276 0.048467 0 255 255
-0.498148 -0.251196 0.048467 0 255 255
-0.507844 -0.254088 0.049333 0 255 255
-0.508596 -0.25258 0.049333 0 255 255
-0.509387 -0.250981 0.049333 0 255 255
-0.501222 -0.245004 0.048467 0 255 255
-0.510954 -0.247775 0.049333 0 255 255
-0.502752 -0.24185 0.048467 0 255 255
-0.5125 -0.24456 0.049333 0 255 255
-0.504262 -0.238686 0.048467 0 255 255
-0.505009 -0.237101 0.048467 0 255 255
-0.505751 -0.235513 0.048467 0 255 255
-0.515533 -0.2381 0.049333 0 255 255
-0.516279 -0.23648 0.049333 0 255 255
-0.517019 -0.234857 0.049333 0 255 255
-0.508671 -0.22914 0.048467 0 255 255
-0.518484 -0.231604 0.049333 0 255 255
-0.528318 -0.234008 0.050198 0 255 255
-0.529051 -0.232347 0.050198 0 255 255
-0.520644 -0.226707 0.049333 0 255 255
-0.521354 -0.22507 0.049333 0 255 255
-0.522058 -0.223431 0.049333 0 255 255
-0.522758 -0.22179 0.049333 0 255 255
-0.523452 -0.220146 0.049333 0 255 255
-0.524141 -0.218501 0.049333 0 255 255
-0.533994 -0.220751 0.050198 0 255 255
-0.534684 -0.219072 0.050198 0 255 255
-0.53537 -0.217391 0.050198 0 255 255
-0.526808 -0.211989 0.049333 0 255 255
-0.527472 -0.210333 0.049333 0 255 255
-0.537395 -0.212336 0.050198 0 255 255
-0.53806 -0.210647 0.050198 0 255 255
-0.538719 -0.208955 0.050198 0 255 255
-0.530073 -0.203688 0.049333 0 255 255
-0.53071 -0.202022 0.049333 0 255 255
-0.540664 -0.203869 0.050198 0 255 255
-0.531969 -0.198684 0.049333 0 255 255
-0.532591 -0.197011 0.049333 0 255 255
-0.533207 -0.195337 0.049333 0 255 255
-0.533818 -0.193661 0.049333 0 255 255
-0.534424 -0.191983 0.049333 0 255 255
-0.525638 -0.186965 0.048467 0 255 255
-0.535619 -0.188621 0.049333 0 255 255
-0.536209 -0.186938 0.049333 0 255 255
-0.527377 -0.182002 0.048467 0 255 255
-0.527946 -0.180344 0.048467 0 255 255
-0.537947 -0.181876 0.049333 0 255 255
-0.538485 -0.180279 0.049333 0 255 255
-0.529591 -0.175453 0.048467 0 255 255
-0.53014 -0.173789 0.048467 0 255 255
-0.521207 -0.169049 0.047602 0 255 255
-0.531221 -0.170454 0.048467 0 255 255
-0.531754 -0.168785 0.048467 0 255 255
-0.532282 -0.167113 0.048467 0 255 255
-0.52329 -0.162486 0.047602 0 255 255
-0.514274 -0.157917 0.046736 0 255 255
-0.524301 -0.159195 0.047602 0 255 255
-0.524798 -0.157547 0.047602 0 255 255
-0.52529 -0.155897 0.047602 0 255 255
-0.525778 -0.154246 0.047602 0 255 255
-0.516691 -0.149819 0.046736 0 255 255
-0.526736 -0.15094 0.047602 0 255 255
-0.527208 -0.149284 0.047602 0 255 255
-0.51808 -0.144943 0.046736 0 255 255
-0.518533 -0.143315 0.046736 0 255 255
-0.528592 -0.144309 0.047602 0 255 255
-0.529042 -0.142648 0.047602 0 255 255
-0.510234 -0.135858 0.045871 0 255 255
-0.520293 -0.136788 0.046736 0 255 255
-0.511077 -0.132649 0.045871 0 255 255
-0.521142 -0.133516 0.046736 0 255 255
-0.511878 -0.129525 0.045871 0 255 255
-0.512282 -0.127916 0.045871 0 255 255
-0.512682 -0.126306 0.045871 0 255 255
-0.513076 -0.124695 0.045871 0 255 255
-0.513465 -0.123083 0.045871 0 255 255
-0.513849 -0.121469 0.045871 0 255 255
-0.504526 -0.117593 0.045005 0 255 255
-0.495183 -0.113776 0.04414 0 255 255
-0.505255 -0.11442 0.045005 0 255 255
-0.495889 -0.110663 0.04414 0 255 255
-0.496234 -0.109104 0.04414 0 255 255
-0.506311 -0.109653 0.045005 0 255 255
-0.506653 -0.108062 0.045005 0 255 255
-0.49724 -0.104422 0.04414 0 255 255
-0.497566 -0.10286 0.04414 0 255 255
-0.488124 -0.09931 0.043274 0 255 255
-0.498185 -0.099818 0.04414 0 255 255
-0.498496 -0.098253 0.04414 0 255 255
-0.489022 -0.09479 0.043274 0 255 255
-0.489317 -0.093254 0.043274 0 255 255
-0.479815 -0.089882 0.042409 0 255 255
-0.480095 -0.088374 0.042409 0 255 255
-0.480371 -0.086865 0.042409 0 255 255
-0.480641 -0.085356 0.042409 0 255 255
-0.471092 -0.082134 0.041543 0 255 255
-0.481168 -0.082334 0.042409 0 255 255
-0.481424 -0.080822 0.042409 0 255 255
-0.481676 -0.079309 0.042409 0 255 255
-0.472087 -0.076208 0.041543 0 255 255
